# .PCD v0.7 - Point Cloud Data file format
VERSION 0.7
FIELDS x y z intensity
SIZE 4 4 4 4
TYPE F F F F
COUNT 1 1 1 1
WIDTH 1390
HEIGHT 1
VIEWPOINT 0 0 0 1 0 0 0
POINTS 1390
DATA ascii
-2.4175665 0.10985642 18.520132 8.7142859
-2.3200357 0.1165373 18.557283 8.75
11.921453 0.14445803 18.502661 10
12.140098 0.078037985 18.499897 9
-2.8975639 0.35714373 18.543852 9.25
-2.6890416 0.34852442 18.519075 9.25
-2.4907515 0.28393671 18.532894 8.8571424
-2.3221848 0.30614465 18.542944 9.3157892
-2.0749967 0.31977281 18.534046 9.1999998
-1.9074154 0.34678933 18.519495 9.416667
-1.7230238 0.33865413 18.530924 9.1176472
-1.5220112 0.35939658 18.547216 8
-1.3171033 0.31165177 18.573462 8
-1.1295079 0.27086964 18.547731 8
11.733595 0.2638889 18.531916 10
12.130293 0.3465907 18.481411 10
12.338131 0.33425805 18.476925 10
-8.7522125 0.54269755 18.527185 8.5
-8.477252 0.49177891 18.416431 9
-3.0673218 0.49643052 18.550934 9.5
-2.9182127 0.48529175 18.566225 9.875
-2.7499154 0.46936193 18.543232 10.5
-2.4744039 0.4853186 18.537111 9.666667
-2.2971985 0.51431102 18.536381 10.5625
-2.0652788 0.5059275 18.527365 9.5
-1.8865379 0.49182504 18.52043 10.133333
-1.7277679 0.49598691 18.537533 10.307693
-1.5782266 0.43265009 18.573891 9
12.140511 0.44023538 18.446529 10
-3.0187488 0.70148182 18.577833 11
-2.8785355 0.7080453 18.568111 11
-2.7555499 0.64490187 18.561836 11
-2.5019248 0.69811875 18.552896 10.333333
-2.2913463 0.71098322 18.539921 10.555555
-2.1321034 0.69770724 18.551918 10.75
-1.8957787 0.66757792 18.5385 10.631579
-1.7265468 0.68135357 18.52791 11.166667
-1.5816026 0.67457831 18.539713 10
12.097385 0.62479788 18.514648 10.5
-8.687027 0.87570107 18.483345 10
-3.0098045 0.94540131 18.59745 12
-2.9026463 0.88161039 18.568268 11.714286
-2.516844 0.81835222 18.561581 11.333333
-2.2752697 0.90489095 18.546198 11.583333
-2.112325 0.88152885 18.545591 11.416667
-1.8639818 0.92047381 18.532328 11.111111
-1.7368208 0.8942042 18.543972 11.809524
-1.5902845 0.82795739 18.478287 11
-1.314885 0.96681869 18.599438 9
11.977143 0.98224646 18.568827 9
12.178709 0.95859981 18.473854 11
12.494919 0.81773305 18.509003 11
-8.6705246 1.0578072 18.497265 10.5
-8.5504627 1.1243678 18.566141 11
-2.9403687 1.0702703 18.578918 12.333333
-2.6679804 1.0287988 18.576788 13
-2.4950669 1.134508 18.484085 13
-2.2860203 1.1154199 18.557768 11.909091
-2.0932136 1.0967119 18.556448 11.714286
-1.8920022 1.1004452 18.540607 11.75
-1.7412689 1.102856 18.536453 12.5
-1.5452983 1.0563896 18.553837 10.2
-1.0850567 1.0204629 18.59487 9
12.135557 1.0871422 18.449177 11.5
-8.5639648 1.3685589 18.477251 10
-2.4404054 1.3083179 18.562584 14.5
-2.2868152 1.2331491 18.588402 12.5
-2.0895131 1.3293866 18.534861 13
-1.8713905 1.3087567 18.537817 13.090909
-1.7036512 1.315551 18.554779 13.2
-1.5420651 1.3060931 18.4632 14
12.1315 1.2843342 18.50798 11.5
12.435959 1.3251574 18.514254 12
-2.8851423 1.435815 18.44495 9
-2.3727169 1.5171108 18.599562 12
-2.0713806 1.4992031 18.56477 13
-1.8658186 1.4991659 18.557228 12.7
-1.6953576 1.4869914 18.556276 13.090909
-1.528172 1.4672346 18.53879 12.5
12.172643 1.5021338 18.482883 12.666667
-8.6792622 1.7009408 18.512516 12
-8.5614872 1.6233965 18.440338 12
-2.0910056 1.732908 18.563322 12.5
-1.9014529 1.7210182 18.561255 13
-1.7135137 1.6899724 18.564901 12.666667
-1.584734 1.7498815 18.550783 13.5
12.133315 1.7940959 18.539774 13
12.202351 1.7276149 18.465601 12
-8.612464 1.9609009 18.489388 12
-8.4655628 1.9117692 18.532663 13
-2.0694549 1.8302407 18.529625 14
-1.9187083 1.8584456 18.543467 14
-1.6800301 1.8239654 18.552685 14.25
-1.4829426 1.8299565 18.555737 12.5
12.183435 1.9352243 18.516697 13.5
12.229283 1.9829044 18.402214 13
-8.7251377 2.0751581 18.500395 13
-2.3864412 2.000375 18.516409 14
-2.0416381 2.1443129 18.480562 14.666667
-1.8632362 2.1262846 18.504057 14.25
-1.7687273 2.1441941 18.556595 12.5
-1.5484664 2.1192176 18.523178 14.6
12.139524 2.0758781 18.497456 13.5
-8.6075821 2.3034806 18.492561 13
-8.5447283 2.2930503 18.578882 12
-8.3823786 2.316601 18.459175 14
-2.0809667 2.2105958 18.515244 11
-1.706104 2.218833 18.521885 13.5
12.165769 2.2826653 18.490179 14
12.251701 2.2633476 18.5208 13
-8.6822519 2.5409324 18.518206 14
-8.430213 2.5347333 18.417196 13
-7.9854794 2.5768325 18.479113 11
12.184055 2.4521289 18.506451 14.5
12.255048 2.4702604 18.453611 13.666667
-8.7049637 2.6615083 18.409832 14
-8.5911427 2.7534263 18.493553 14
-8.3703814 2.6742439 18.464081 15
12.128403 2.6865096 18.518093 14
-33.7528 2.9078445 18.456366 10
-8.7658367 2.9987178 18.429024 15
12.219115 2.8752241 18.53137 15
-8.6989765 3.0937829 18.426636 15
-2.2726097 3.1161962 18.582737 10
12.226418 3.0497155 18.424162 15
-8.144249 3.2991052 18.469852 12
-7.9848857 3.3171144 18.485558 12
12.155835 3.2408173 18.531952 15
12.277468 3.3460124 18.460403 14
-8.3703842 3.5818563 18.411858 15
-2.1225247 3.4674096 18.487041 11
-1.8167855 3.4627309 18.469194 12
-1.1248676 3.5134108 18.575191 11
12.2413 3.5187094 18.472939 15
-2.2513533 3.613102 18.588053 12
12.366738 3.7774744 18.407141 14
-8.1491013 4.0352201 18.488129 13
-7.9736495 4.0624142 18.476231 13
-2.532634 4.1866083 18.563444 13
-1.7491778 4.178093 18.434776 11
-0.55883002 4.1153636 18.552673 13
0.023097754 4.1154122 18.441954 14
-19.233595 4.3744473 18.451847 13
-7.9519854 4.3295269 18.502407 13
-3.7256718 4.3844557 18.444334 11
-2.5720565 4.2186737 18.563705 11
-2.2730985 4.3084412 18.407293 14
-2.1032429 4.2856951 18.424948 12.5
-1.8970784 4.3053565 18.440025 13.666667
0.22101122 4.2181506 18.520151 14
-8.0217123 4.4266663 18.455055 13
-2.0869246 4.4378304 18.430304 12
-1.8132935 4.4814177 18.449841 13
-1.6653156 4.5502276 18.401636 15
-1.3347702 4.5962811 18.520084 12
-1.1442262 4.4298592 18.549385 12
-0.65459585 4.5678973 18.534058 12
12.376143 4.4547977 18.431458 15
-8.1348791 4.7733903 18.470568 14
-1.6461494 4.6078773 18.504028 12
-1.5884086 4.6739554 18.421627 12
-0.89298302 4.7364025 18.554174 15
-0.78120971 4.600503 18.590277 12
-7.9710426 4.8204041 18.478498 14
-0.61058801 4.965291 18.513437 12
-0.56320524 4.9749913 18.516245 15
-19.220778 5.077343 18.460182 14
-8.1159048 5.1146255 18.413296 14
-7.8933811 5.1722302 18.478777 14
-2.0877037 5.0780993 18.526112 15
-1.8345098 5.1133137 18.480619 15
-1.137362 5.098237 18.555534 15
-0.42888677 5.1132112 18.490711 13.5
-0.35597575 5.0370302 18.506287 15
-7.9973149 5.2137623 18.467577 14
-2.8138709 5.3749623 18.450371 12
-1.8828257 5.3044991 18.466909 13
-8.1335382 5.5292439 18.47488 15
-7.9679799 5.590683 18.48011 15
-3.7436635 5.6322002 18.511923 13
-3.3354883 5.6497965 18.563652 13
-7.900444 5.9468536 18.486933 15
-3.5015979 6.3312011 18.435059 14
3.5161057 -1.5537478 18.666582 4
12.035455 -0.70093817 18.6406 8
-2.3006322 -0.33162382 18.652384 7.3333335
12.025846 -0.20196213 18.695915 9
-3.844316 -0.09710601 18.685228 8
-3.7119601 -0.15283467 18.722282 8
-2.4628134 -0.083190493 18.605509 8
-2.3220417 -0.086949326 18.651737 8
-3.686717 0.11728945 18.666761 9
-2.4513035 0.10643843 18.613661 9
-2.2670059 0.10786472 18.641941 8.75
-3.8276801 0.22335182 18.627537 9
-3.68908 0.39021504 18.686806 10
-3.0819209 0.37522468 18.601421 10
-2.4189429 0.31017569 18.632153 9.5
-2.2974198 0.29605573 18.640766 9
-2.1192193 0.37443009 18.636333 9
-1.9139346 0.32198155 18.636412 8
-1.733568 0.33041996 18.602814 9
11.736706 0.34085694 18.692429 9
12.061035 0.26398095 18.652319 10
-8.9213705 0.50172585 18.634199 9
-8.6305447 0.43990535 18.664688 8
-3.7331898 0.51507384 18.687971 9.666667
-3.5285182 0.51026177 18.666306 10
-3.0068872 0.41716099 18.617897 10
-2.8898339 0.50247437 18.65163 9.5
-2.6395769 0.40260348 18.639465 10
-2.5855474 0.5539062 18.605213 11
-2.3046978 0.5222888 18.619162 10.666667
-1.8014364 0.47526401 18.642405 9
-1.7895594 0.42115146 18.775898 9
-1.3872046 0.41445601 18.734871 9
-8.6316452 0.71459758 18.725201 9.5
-8.547554 0.74469447 18.65023 10
-3.0505996 0.63599002 18.647306 11
-2.8975892 0.67015564 18.720079 11
-2.7527187 0.63009745 18.622639 11
-2.5723367 0.79457021 18.611141 10
-2.2881241 0.67887735 18.623722 11
-1.8176745 0.74488229 18.618301 11.333333
-1.710954 0.72567254 18.656496 10
-1.3945735 0.79404992 18.604555 8
12.102953 0.68590641 18.621958 11
-8.9104137 0.99627709 18.743679 9
-2.9331326 0.85341793 18.622038 11
-2.7043452 0.85101032 18.653402 12
-2.2479603 0.8176651 18.608019 11.333333
-2.1320558 0.93965989 18.626225 11
-1.8661883 0.92834926 18.684208 10
-1.7423538 0.8927294 18.608232 11
-1.5216997 0.83379626 18.700207 11
-1.383375 0.97682524 18.672178 9
12.078619 0.80237263 18.727856 11
-8.687891 1.082484 18.7481 10.5
-2.6794133 1.1070487 18.602352 11
-2.5945015 1.018888 18.630718 13
-2.2517061 1.0390832 18.624346 13
-2.1117198 1.0964706 18.627201 11
-1.9001318 1.0965137 18.616861 11.285714
-1.7259189 1.1017147 18.627739 12.166667
-1.5613006 1.0445639 18.633923 11
-1.3106004 1.0445369 18.602766 9
-8.7373552 1.3080224 18.639402 11
-2.560065 1.2497399 18.635927 14
-2.285471 1.2508169 18.619905 13.666667
-2.1550188 1.2498478 18.61463 13.5
-1.8472199 1.3547306 18.612251 12
-1.7442539 1.2761453 18.617826 13.5
-1.595916 1.3046629 18.608631 12
-1.2274632 1.2939842 18.786095 11
11.897799 1.2248591 18.634026 10
12.074771 1.3048614 18.675959 12
-8.7060814 1.4525762 18.675459 11
-2.8547599 1.458043 18.603794 12
-2.1165283 1.4602393 18.630465 13.333333
-1.8894295 1.5001429 18.626392 12.8
-1.6729496 1.4776992 18.649645 13.5
12.018242 1.5280797 18.755981 11
-8.6568899 1.7150909 18.693033 12
-2.7879822 1.7725351 18.616436 13
-2.5519738 1.6725073 18.626156 12
-2.2296801 1.6553771 18.609299 12
-2.0901439 1.6467975 18.629887 10.666667
-1.9011036 1.7194468 18.620249 10.666667
-1.7329599 1.6409721 18.610092 11.666667
-1.4823353 1.7085608 18.638565 9.75
-1.2609663 1.6962023 18.663612 10.4
-1.0659359 1.7092576 18.634245 10
11.920843 1.7030041 18.77277 11
-8.6833811 1.8901561 18.69446 12
-8.507144 1.8000113 18.625267 11
-1.7542477 1.8330445 18.642376 12
12.083463 1.8177041 18.736975 13
-8.6534681 2.1265471 18.680637 13
-2.2385039 2.0949683 18.625141 13
-1.8414743 2.0979145 18.66185 13
-1.7803305 2.091176 18.725639 13
-1.227139 2.1820941 18.757114 13
11.851662 2.0695517 18.73704 12
12.104618 2.0074632 18.734631 13
-8.6664143 2.3783875 18.611732 14
-8.5109711 2.2436256 18.613403 13
12.073004 2.2878881 18.736633 13
-8.6638966 2.4405556 18.69363 13.5
12.090569 2.5457678 18.747841 14
-8.6420069 2.6897373 18.683609 14.5
-8.5887613 2.6562378 18.615471 14
-1.5908289 2.7788384 18.789728 11
-8.7300901 2.9297988 18.669062 14.666667
-8.5212536 2.9209416 18.708954 15
-1.0233281 2.9684722 18.619699 10
-0.92487395 2.9699883 18.741159 12
-0.66921979 2.9592719 18.705372 10
-0.49445233 2.9918854 18.766827 10
0.18013138 2.8653483 18.745865 12
-8.6193495 3.1005635 18.763176 15
-1.8410091 3.1929123 18.709064 13
-0.4872559 3.0484202 18.691078 12
-0.25413182 3.0006976 18.794483 13
11.903761 3.0088551 18.665157 12
-8.7299242 3.274904 18.698093 15
-0.21894616 3.3565822 18.701344 11
-0.19091664 3.342191 18.613739 11
12.091412 3.324249 18.771507 15
-8.7117157 3.4088335 18.602238 15
-2.2767627 3.5994167 18.654675 13
-0.86449432 3.5950017 18.746292 11
-0.65267515 3.5095868 18.757259 12.5
-0.44985741 3.4631937 18.711349 13
-0.08751297 3.4906678 18.744364 13
0.20515877 3.5561724 18.714605 13
0.45048749 3.4150746 18.705881 13
12.170745 3.5708156 18.754023 14
-2.6014173 3.6636426 18.711338 11
-2.2180257 3.6182785 18.683393 13
-2.0577261 3.6814549 18.706303 13
-1.9463727 3.7200437 18.747183 13
-1.7006944 3.673156 18.693331 12.333333
-1.360094 3.6247485 18.728321 12
-1.0935872 3.6792624 18.713243 13
-1.7566857 3.9067745 18.736109 14
-0.41076767 3.9879396 18.73877 11
-0.23115969 3.9342711 18.648098 12
11.789139 3.9381573 18.753117 15
-1.0166681 4.1507792 18.737171 11
-0.38307685 4.0812263 18.605093 14
-0.10125303 4.116693 18.636648 11
0.36781394 4.0688539 18.766804 14
0.41919553 4.1080909 18.60132 14
-2.2801921 4.2910466 18.664915 14
-1.6176506 4.293294 18.608248 14
-1.268012 4.2571955 18.622932 14
-1.1050563 4.2988343 18.717537 14
-0.91409302 4.3429856 18.705919 14
-0.7177906 4.3809643 18.73233 13
-0.57671273 4.3383131 18.787716 14
-1.8631537 4.5547748 18.642628 14
-1.3784235 4.4351373 18.738148 14
-1.0540526 4.4503355 18.702995 14
-0.86158913 4.5253873 18.735281 12.666667
-0.55672663 4.4929891 18.765539 13.333333
-0.36708441 4.4162564 18.793364 14
-1.1257957 4.7138462 18.721889 12.5
-0.70056415 4.6561632 18.785206 13
-0.32561135 4.7792697 18.734083 12
-0.83021301 4.9477696 18.643326 15
-0.68876916 4.9433794 18.681225 14.714286
-0.47654852 4.9589853 18.651407 14.5
-0.089933038 4.8868518 18.686037 15
-1.12428 5.0067811 18.653944 15
-0.87081242 5.0531845 18.707582 14
-0.60654867 5.160038 18.684387 12
-0.50054443 5.0398192 18.670298 15
-0.26142359 5.1515779 18.773861 12.5
-5.0155678 5.306921 18.783974 12
-0.21439791 5.2585831 18.735933 12
-1.9097309 5.4207711 18.674892 12
-1.7453927 5.4001031 18.650715 12
-1.4618509 5.6314282 18.643145 13
11.94229 -1.2527732 18.804228 6
11.979298 0.23337333 18.826157 9
-8.9215908 0.57556069 18.880735 8
-8.7300072 0.4518643 18.929966 8
-8.9066305 0.78687257 18.987953 10
-8.7554588 0.67423248 18.875504 9
-8.5710964 0.71796179 18.915325 8
11.935922 0.76005024 18.816341 10
-8.7156868 0.87941861 18.87315 9.5
-8.7375221 1.0342518 18.875957 10
11.973714 1.2955854 18.859882 11
-8.9137125 1.443555 18.932684 10
-8.7599106 1.4530839 18.827894 11.333333
-8.5971889 1.5028696 18.861412 12
-8.7283325 1.7836277 18.866741 11.5
11.836767 1.6755593 18.83913 12
-8.733119 1.9189222 18.895481 12.25
-8.5883627 1.8914053 18.915754 13
11.953872 1.8293273 18.862452 12
-8.8859015 2.0292039 18.983501 12
-1.8723552 2.0964901 18.818203 13
-8.7040195 2.3302703 18.906414 13
11.897909 2.2861896 18.878445 13
-8.7414932 2.5141196 18.898975 14
-0.27382743 2.5233989 18.940182 10
-8.8417511 2.636333 18.912186 13
-8.7032356 2.7343252 18.946047 14
11.808122 2.7162323 18.804977 14
-8.7044878 2.8780918 18.887226 14.833333
-0.8813622 2.9338317 18.846136 10
-0.75268698 2.9884477 18.8188 12
-0.50967562 2.9570093 18.807413 12
-0.3369953 2.8454523 18.833998 12
-0.053641319 2.8151815 18.842773 12
11.953772 2.9202981 18.9004 14
-8.6929407 3.1780851 18.948437 15
-2.2287574 3.0877519 18.862967 10
-2.1350064 3.0675297 18.906281 10
-0.67868209 3.1318932 18.823624 13
-8.7580929 3.3150749 18.91964 15
-8.5978079 3.2608812 18.909321 15
0.34027231 3.3752744 18.840191 13
11.78602 3.3206296 18.839241 14.5
-8.6925602 3.4703939 18.865335 15
-1.3234781 3.5551956 18.868404 13
-1.0898027 3.5386138 18.973211 13
-0.44812453 3.5094333 18.895914 13
11.719844 3.405601 18.813534 12
12.019443 3.532908 18.833847 15
-1.7556794 3.6554677 18.896835 12
-1.4047762 3.6945224 18.995184 13
-0.95685977 3.6705575 18.963078 13
-0.79360628 3.6110406 18.829153 11
-0.50627464 3.6854854 18.840839 13
-0.39561224 3.7793832 18.875633 13
1.2211719 3.7505245 18.91317 13
-2.4025688 3.8770082 18.90995 14
-2.3025994 3.961071 18.942711 12
-2.1062324 3.9336057 18.851585 13
-1.8294332 3.8549032 18.859528 13
-1.7153862 3.8237443 18.833544 13
-1.2037261 3.9344671 18.995663 11
-1.1397386 3.8209383 18.958328 12
-5.07862 4.1562119 18.993858 11
-1.1778042 4.1819363 18.896788 13
-0.90893233 4.1852336 18.981478 14
-0.1834695 4.0646911 18.912758 12
-1.3832766 4.2112017 18.926075 14
-0.68782467 4.361681 18.909233 14
-0.45722583 4.3400073 18.855337 13
-0.84867072 4.4099879 18.999332 14
-0.37292767 4.4746008 18.808397 14
-5.2158737 4.7218566 18.837446 14
-0.49325913 4.649158 18.866739 12
-1.3840873 4.9443836 18.927853 13
-0.90553498 4.9119854 18.897738 13.5
-0.65368044 4.9680839 18.827963 15
-0.51432467 4.9768033 18.866764 13
-1.0659304 5.0685716 18.933584 14.666667
-0.84094691 5.1468072 18.82678 15
-0.46292713 5.0376701 18.806635 14
0.17927337 5.1142383 18.978178 15
-1.9422319 5.3101754 18.849171 15
-1.7558531 5.2415695 18.937637 12
-1.238519 5.3947854 18.851278 12
-0.99849558 5.3078527 18.942179 12
-0.22695035 5.2634897 18.815735 13
-5.0358591 5.5534935 18.858223 15
-4.8220868 5.4382744 18.98666 12
-1.0570809 5.4580917 18.896118 13
-3.4500015 6.8382792 18.857395 14
-3.3535585 6.9098864 18.808933 14
6.9584413 -1.3288028 19.061022 5
6.7252541 -0.94919109 19.182755 7
6.9230628 -0.88965297 19.117607 6
7.0843058 -0.94043958 19.058781 6
6.8805237 -0.67016685 19.153921 8
7.0189476 -0.66771472 19.066814 7
6.7586317 -0.48296559 19.174812 7.25
6.8491907 -0.48167193 19.12282 7.25
7.2944031 -0.50401717 19.05747 7
6.726285 -0.29894781 19.131653 8.75
6.8352079 -0.34148261 19.174225 7
6.7383027 -0.066737376 19.166517 8.666667
6.8303795 -0.031222805 19.176086 8
6.7321601 0.053825509 19.148466 10
6.8624797 0.022754326 19.119373 9
7.041585 0.0053872764 19.052008 8
-8.9602976 0.31222978 19.155195 9
-8.7502594 0.38661742 19.033882 9
6.7345347 0.30532244 19.179663 9.7142859
6.8557115 0.34012401 19.130539 9.5
-8.6403084 0.47745469 19.149878 8.75
6.5677614 0.51632714 19.191883 9
6.7219834 0.51522762 19.163656 10.666667
6.8966069 0.42447662 19.158587 8.666667
7.1259942 0.48223469 19.111883 8.333333
7.2904911 0.54377729 19.073599 8
-8.7414494 0.71908331 19.065884 9
6.7422571 0.70610034 19.167065 11
6.8748612 0.66922194 19.158697 9.8571424
7.126081 0.63014311 19.106991 8.5
-8.6871099 0.90829486 19.097895 9.333333
6.7182212 0.89506364 19.155653 12
6.8862119 0.87613028 19.139929 10.666667
7.0569959 0.80270523 19.102278 10
-8.8682985 1.1765258 19.045111 10
-8.7089071 1.0929856 19.0844 10
-8.5562506 1.1801178 19.149305 9
6.7301974 1.1003404 19.159637 11.75
6.9025369 1.1150148 19.10928 10
-8.7230301 1.3154321 19.085281 11
-8.575161 1.3173683 19.167011 10.5
6.5652809 1.2530154 19.176983 10
6.763032 1.2949939 19.136051 13.5
6.918386 1.3302228 19.15192 10.333333
7.1590695 1.3353157 19.050131 10
-8.8880243 1.4506505 19.016376 11
-8.7087994 1.5043817 19.119394 11
6.7137699 1.4719868 19.151176 13.666667
6.8755946 1.5265766 19.183931 11.333333
7.2131009 1.5681949 19.127518 9
-8.6652946 1.7895005 19.187672 12
-8.593461 1.7088795 19.185711 11
6.725853 1.6857194 19.159895 14.666667
6.8968463 1.6799556 19.156828 12
7.1149936 1.6404486 19.189133 9
-8.7042036 1.8961221 19.13669 12
6.7300777 1.8851875 19.163387 14
6.8976464 1.8744128 19.169983 11.5
-8.8652897 2.037787 19.163868 12
-8.7003422 2.1250231 19.105915 12.75
-8.5869074 2.0885742 19.1075 12
6.9090962 2.0521142 19.140894 13
7.0920582 2.0609112 19.113922 11
-8.5403252 2.2834508 19.162132 14
6.84619 2.2842774 19.143473 14.333333
-8.6720285 2.4808741 19.138737 13.666667
-8.5848484 2.5066886 19.089092 13
0.36196756 2.5941453 19.142666 10
0.75697815 2.5569866 19.188677 10
6.8788066 2.4755366 19.125801 14
7.2127271 2.5926468 19.107176 10
-8.865284 2.6199391 19.175846 13
-8.7041397 2.6365461 19.18819 13
0.35289097 2.6962953 19.121342 10
0.46458563 2.6927588 19.082367 11
6.7476864 2.7525291 19.101669 15
6.867959 2.6920075 19.146086 12
7.3391895 2.7711656 19.081575 12
-8.6477556 2.9737592 19.173512 15
-8.549181 2.8625097 19.10223 14.5
-1.7626859 2.8267541 19.192905 10
-1.0185205 2.9761333 19.143885 12
-0.64146709 2.8891807 19.069569 10
-0.44492382 2.9729033 19.194267 12
6.5700879 2.8130219 19.186993 15
6.7231832 2.8095808 19.178677 13
6.8629522 2.8204195 19.05348 15
-8.8216257 3.1725802 19.122547 14
-8.6767101 3.1791451 19.008686 15
-8.5255671 3.0104444 19.090385 13
-1.4665246 3.0860572 19.178408 12
-1.2071563 3.0194747 19.145838 12
-1.1072044 3.0854361 19.192526 12
-0.74109626 3.0040016 19.121222 12
-0.52325952 3.069155 19.181273 12
-8.7289381 3.3397729 19.155813 14
-8.5515165 3.3543472 19.158409 15
-1.2300286 3.2505016 19.187885 12
6.6668777 3.3500988 19.101534 14.5
-8.613431 3.4496198 19.09514 15
-1.3246802 3.4895241 19.156643 13
-0.7211442 3.5488 19.069136 12.5
-0.44149673 3.4919248 19.060865 11
-1.2531245 3.7108693 19.142426 12
-1.0853107 3.7386117 19.085806 12.8
-0.89685798 3.6457403 19.08622 12.5
-0.65348715 3.671293 19.098251 13
-0.50482017 3.7078693 19.079283 12.333333
-0.28985471 3.6896491 19.079456 12
-0.093020678 3.7027407 19.189177 13
0.010305524 3.733638 19.088867 11
0.26426655 3.7064047 19.185757 13
0.47917902 3.7466738 19.115574 14
0.66154695 3.709039 19.169771 13
-5.4267664 3.9502301 19.141705 13
-1.4411273 3.8004205 19.148603 13
-1.2196155 3.8302951 19.099556 15
-1.0549638 3.8206675 19.102049 14
-0.7045666 3.8128057 19.088282 13
-0.56387103 3.8434389 19.113853 12
0.2626369 3.8536606 19.110041 13
-0.90805119 4.1767931 19.015537 14
-0.69643289 4.059793 19.079655 12
-0.46353209 4.1700225 19.024773 14
-5.0928459 4.2333994 19.013535 11
-0.88756335 4.3716331 19.024597 14
-0.64236498 4.3421254 19.028488 13
0.33962288 4.386456 19.163336 14
0.45968026 4.3247633 19.11091 13.5
0.69475937 4.3726707 19.086487 14
-4.7419596 4.566761 19.106222 12
-2.484447 4.5468311 19.051596 15
-0.12386918 4.4011092 19.008335 14
0.5982995 4.4470229 19.157839 14
0.68252277 4.4594741 19.11729 14.5
0.62627542 4.9362311 19.106876 15
-1.3215992 5.1139145 19.006571 12
-0.78288728 5.3797746 19.00024 12
-0.31579053 5.3845472 19.007469 12
-4.6815872 5.5938115 19.012434 13
-0.83574772 5.4548059 19.080444 14
-0.17469585 5.4013267 19.060038 13
3.5153427 -1.5174994 19.302166 4
6.5110331 -1.4565178 19.261768 6
6.5237107 -1.0531425 19.38113 7
6.6222019 -1.1185603 19.290527 7
3.4927602 -0.88539934 19.383568 6
6.7886219 -0.92617136 19.257643 6
7.0441055 -0.97469807 19.233568 6
6.5962477 -0.64784354 19.331081 7
6.6328468 -0.6707285 19.255047 8
6.5476851 -0.52248031 19.365864 8
6.6711707 -0.50699818 19.25692 7.8000002
6.8072596 -0.4815971 19.219238 7
7.0259724 -0.49056366 19.226421 7
6.5608139 -0.28494117 19.335276 8.1428576
6.6905227 -0.27602366 19.254192 8.666667
6.5624022 -0.053017665 19.331499 8.666667
6.675477 -0.11674305 19.260204 8.7857141
6.8225093 -0.083462477 19.246958 8
7.1273508 -0.0073337257 19.212152 8
-8.7734594 0.070841059 19.202721 8
6.5481901 0.095102064 19.358158 9.1999998
6.6654778 0.10005522 19.27446 9.0625
6.8079367 0.046594203 19.276779 8
6.5602579 0.28235558 19.341969 9.1428576
6.6830373 0.28318274 19.274097 9.666667
6.8154168 0.28278208 19.224434 8
-8.8854523 0.41352296 19.259708 9
-8.7207527 0.501001 19.288307 8.5
6.5330424 0.48338157 19.374176 9.25
6.692337 0.52016073 19.295755 10.2
6.8272681 0.44566655 19.266756 9
7.1205668 0.49086362 19.209435 9
6.2551069 0.65992957 19.34486 8
6.5813479 0.65967536 19.371864 10.75
6.6947141 0.7015745 19.274912 10.521739
6.8214145 0.75403076 19.246662 9
-8.881382 0.95709956 19.216972 10
-8.688818 0.92778748 19.235991 9.5
6.5554857 0.89657831 19.34136 10.8
6.66118 0.90133327 19.290112 10.789474
6.841783 0.89910817 19.248339 9.666667
7.128674 0.99274635 19.231064 10
-8.7809544 1.0902729 19.255411 10
6.569345 1.0873671 19.34903 11.833333
6.6915326 1.0911731 19.294096 11.5
6.8318148 1.11448 19.249613 10.75
-8.6875849 1.272081 19.299417 10.333333
6.5693545 1.2633489 19.330608 11.428572
6.6700115 1.3048662 19.299774 11.944445
6.858922 1.2718871 19.235874 10.5
-8.8620262 1.4117677 19.324327 10.5
-8.708436 1.4701319 19.304399 10.333333
-8.5449629 1.4450686 19.367489 10
6.5576301 1.4652504 19.346607 11.142858
6.6788645 1.5246826 19.278885 12.058824
6.8524785 1.497955 19.254971 9.833333
7.1302032 1.4980149 19.245039 11
-8.709548 1.7187818 19.290134 11
-8.535243 1.6566062 19.384098 10
6.3478661 1.643149 19.312904 9
6.5695639 1.7269316 19.338732 13.142858
6.6658635 1.6909952 19.315962 12.222222
6.8231053 1.6476648 19.28862 10
7.1848292 1.6095102 19.225891 9
-8.8773565 1.8686092 19.298317 11
-8.7072401 1.8276683 19.243643 12
-8.5213318 1.9150157 19.338034 11
6.5755806 1.8846602 19.313129 13
6.6838803 1.9120742 19.286018 13.083333
6.8266048 1.8851846 19.25412 10.5
-8.7199974 2.1475878 19.29616 12.333333
6.532114 2.070096 19.349901 13.083333
6.6932755 2.1027157 19.285755 13.117647
6.8442559 2.1083388 19.242371 11.333333
-8.8793993 2.3164759 19.300446 12
-8.728611 2.2843027 19.281965 12.333333
-8.526926 2.3960738 19.339142 12
-1.0178818 2.2398741 19.387928 10
-0.092636168 2.3280249 19.367683 11
0.26379651 2.3409271 19.355373 10.5
0.72295725 2.3645008 19.351091 11
6.5469131 2.2487755 19.329334 14
6.6962729 2.3135993 19.287931 13.071428
6.8321586 2.2500553 19.267736 12.2
-8.8203259 2.4230213 19.224976 12
-8.6548843 2.5626783 19.271162 13.666667
-8.5443316 2.4830747 19.315987 14
6.51055 2.5299492 19.337591 13.2
6.6761394 2.4848018 19.306103 13.363636
-8.7346296 2.7324922 19.304983 12.666667
-1.3050417 2.7616806 19.306705 11.5
-1.1417596 2.7214272 19.351768 10
-0.84513378 2.6651568 19.375568 10
-0.076658994 2.7715075 19.24304 12
0.37436283 2.7231781 19.215355 12
6.4776397 2.6954262 19.323298 13.75
6.6810007 2.6757088 19.287254 13.75
6.9152622 2.7335827 19.289995 12
-8.8902426 2.8212028 19.21946 13
-8.6936512 2.9249105 19.295677 14.5
-8.5545216 2.8804166 19.321529 13.5
-1.4126103 2.8938892 19.327341 12
-1.3211031 2.8328433 19.339571 12
-1.0907145 2.8413396 19.305777 12
-0.82722199 2.8621793 19.378281 11.5
-0.70532304 2.9926667 19.356758 12
-0.48263085 2.8914583 19.283606 11
-0.26711047 2.8606298 19.218456 11
6.559392 2.8497062 19.258316 14
6.7984066 2.9173381 19.248848 14
6.8633308 2.8162348 19.27372 15
7.039794 2.8614929 19.281151 12
-8.821104 3.1591766 19.338049 14
-8.6402283 3.0713506 19.299101 14
-8.5599537 3.0235152 19.272907 14
-0.1368134 3.0076699 19.38826 12
0.44261396 3.0341837 19.379734 12
0.80125964 3.083776 19.385138 12
1.2094909 3.1109502 19.373083 12
6.4556684 3.0081193 19.256058 14
6.6406641 3.0222447 19.366705 13
-8.8866806 3.2843781 19.21365 14
-8.7150507 3.2880447 19.274889 14
-8.4960289 3.36479 19.300861 14
-8.7143192 3.4573677 19.31366 15
-1.4335806 3.5433609 19.245047 12
-0.8659023 3.4519513 19.374786 11
-0.19320782 3.4035518 19.379917 13
6.3796501 3.4019825 19.230188 15
-0.6268878 3.657974 19.213545 13
-0.12200522 3.6299052 19.224319 11
0.1625132 3.7332993 19.233387 13
0.40299499 3.6950624 19.200443 13
0.6531173 3.747865 19.251518 13
0.80123484 3.776211 19.231445 13
-5.2248788 3.977102 19.276348 13
-1.3088932 3.8034439 19.233215 11
0.54967535 3.8957729 19.252777 12.5
0.97959352 3.8706906 19.239029 13
12.453904 3.8572793 19.394318 15
0.16742033 4.1332712 19.360035 14
0.39658153 4.1329055 19.268295 14
0.48799565 4.0485969 19.232475 12
0.69247711 4.1224275 19.25742 12
-4.8840003 4.3210292 19.298225 11
-1.3431433 4.2073736 19.374218 14
0.5443294 4.2580538 19.247688 14
-0.34923267 4.4685502 19.315769 12
-0.15450466 4.4856577 19.356909 12
0.14759183 4.5728559 19.215315 14
0.31149748 4.4291878 19.300209 14
0.4814772 4.5603876 19.372059 12
-0.83432615 4.6760197 19.366287 12
0.52538776 4.6826591 19.357727 11
-1.2779067 4.9912825 19.300419 12
0.0032569706 4.8610058 19.332478 15
0.25820971 4.8947415 19.335415 15
0.52172399 4.8975601 19.312418 14.333333
0.70629603 4.9501677 19.375217 15
0.29898459 5.0783978 19.34021 15
0.44206172 5.0201554 19.323071 13
0.70723522 5.0924401 19.221878 15
0.85004359 5.1335425 19.223951 15
0.14083856 5.2219052 19.301773 15
12.194596 -1.2540169 19.484465 7
12.23379 -0.83166277 19.476761 8
6.5563688 -0.66225159 19.40284 8
12.327396 -0.72125721 19.478867 7.5
6.3896236 -0.59641081 19.402321 8
6.3562818 -0.2067733 19.429718 9
6.4284515 -0.31927276 19.420734 8
12.23919 -0.27348283 19.471996 9
6.5181041 -0.13510634 19.422585 8.666667
12.30519 -0.14272222 19.52952 8.666667
-8.8207941 0.16943431 19.521069 8
6.3401465 0.18361193 19.474289 10
6.463779 0.039960563 19.428936 9
6.5202527 0.27800128 19.420088 9.8571424
12.354091 0.39024246 19.481888 9.5
-8.7051964 0.49619198 19.453499 8
6.356523 0.5770399 19.499611 11
6.4673052 0.48113433 19.42725 10
6.6142545 0.58560807 19.436165 11
12.272022 0.43868583 19.584925 10
-8.86726 0.76413572 19.403564 9.5
6.5203748 0.68589008 19.422602 10.857142
-8.810257 0.81931686 19.414364 9
-8.6799545 0.90895128 19.506428 9
6.3656969 0.90818363 19.46475 11
6.4622321 0.91605961 19.442867 10.8
6.6036773 0.9543013 19.412649 10
12.267312 0.97629088 19.589592 11
12.511704 0.97836679 19.532875 9
-9.0519962 1.1980715 19.494871 10
6.383172 1.0266229 19.404943 9
6.5060372 1.0857178 19.438208 11.5
6.6096206 1.0569538 19.400551 11
-8.6762018 1.3252764 19.521461 10
6.3820515 1.3134873 19.475925 12
6.4767237 1.3008505 19.452868 12.2
-8.8656158 1.4590092 19.491709 10.5
6.5126677 1.5087941 19.438032 12.4
6.607192 1.4331143 19.439896 11
12.393906 1.5181122 19.555534 11
12.423712 1.5720962 19.471731 11
-9.0365686 1.7700266 19.467812 11
-8.6699944 1.7448863 19.529692 11
6.3733459 1.7159038 19.454142 13
6.4494739 1.6718249 19.468269 11.5
6.270925 1.8478183 19.533102 10
6.516551 1.8670441 19.424236 12.75
-8.8972569 2.0606227 19.495436 12
-8.6217833 2.1046336 19.493395 12
-8.5329666 2.1373403 19.513157 11
6.4213595 2.1311009 19.426056 13
-9.0268278 2.3461611 19.448439 12
-8.7080164 2.2064257 19.592829 12
0.17103803 2.3053925 19.562599 10
0.20836283 2.3299367 19.40036 10
0.4923777 2.3085434 19.461464 10
6.4956207 2.2726278 19.447056 13
6.701797 2.3272853 19.4282 12.5
-8.6242342 2.5237637 19.553612 13
-0.44883141 2.5441048 19.478743 10
-0.020043626 2.5377121 19.524342 10.5
0.15128216 2.5417614 19.535252 10.5
0.49461553 2.4890079 19.52276 10.333333
0.73414361 2.4481506 19.415123 11
1.0502909 2.4110539 19.49375 11
6.327651 2.5315413 19.451996 11
6.4758391 2.4574633 19.471004 13
6.7900128 2.4460955 19.435566 13
-8.8421669 2.7215462 19.456478 13
-8.7356281 2.6899042 19.514332 12.5
-8.5213203 2.6054916 19.493444 12
-1.3064749 2.7128315 19.493053 10
-0.83359212 2.670192 19.458519 10
-0.4940353 2.6971736 19.493359 10
-0.15472928 2.748415 19.53146 10
6.8454957 2.7352479 19.400537 12
12.322147 2.62992 19.484266 14
-9.0101147 2.9400132 19.518875 13
-0.83265448 2.8395376 19.411339 11
-0.6728282 2.8521159 19.415709 11.666667
6.6688538 2.9159393 19.479204 13.333333
-8.9157839 3.1940289 19.490398 14
-8.6430168 3.0214715 19.477573 14
0.072209999 3.0545864 19.404755 12
0.49551862 3.1713853 19.462696 12.5
0.70383906 3.1402032 19.430014 12
6.7194481 3.0969429 19.440464 13.5
0.10053086 3.2360852 19.427771 12
1.4340882 3.2634809 19.590279 11
6.6903501 3.2640758 19.472315 15
12.332011 3.204016 19.485332 15
12.460025 3.28934 19.488794 14
-8.852272 3.4551282 19.444283 13.5
-8.6997328 3.4365387 19.502598 14
-0.48196897 3.5151439 19.459438 11
-0.035931427 3.4574072 19.42131 14
0.10432001 3.5029967 19.470255 12.75
0.48636097 3.442873 19.524132 11
0.76151192 3.5501716 19.554251 11
12.27319 3.5971494 19.561661 15
0.46382838 3.6603091 19.411915 11
12.367202 3.6601791 19.445295 15
12.451382 3.8352129 19.441475 15
-1.4095099 4.1371312 19.474045 12
-0.082832016 4.0813932 19.532593 14.5
12.413046 4.1543107 19.593523 15
0.43351114 4.3038864 19.52636 12
0.053518295 4.5386868 19.410564 13
0.37824464 4.4241586 19.400801 14
0.70372188 4.4040151 19.547907 12
0.94072163 4.4984274 19.433174 12
-0.079275779 4.7445011 19.51873 15
0.46233875 4.6804647 19.452724 12
0.41935238 4.8995895 19.458216 12.666667
0.67991304 5.0789709 19.441269 13
-8.6308403 5.3815937 19.59808 14
3.6832428 -1.6626778 19.730366 4
3.6767578 -1.3501825 19.763994 5
12.159195 -1.1223398 19.664824 7
11.852192 -0.68663287 19.714554 8
12.163445 -0.52920079 19.674147 8
12.15799 -0.32207361 19.666752 9
12.37707 -0.20646174 19.630768 8
11.782619 -0.18572046 19.724485 9
11.895742 -0.18849945 19.692451 9
12.178589 -0.10727441 19.704086 9
12.207619 -0.11245248 19.678942 9
-8.8688831 0.14435998 19.736706 8
12.185623 0.08945784 19.715244 9
12.246613 0.15175778 19.672195 9.5
-8.9071712 0.22879851 19.794922 8
11.845968 0.31239033 19.715216 10
12.183485 0.35791463 19.713343 10
12.202903 0.50944686 19.695316 10
-8.8844337 0.73980153 19.759117 9.5
11.83205 0.75914371 19.768793 10
12.236299 0.6928497 19.675545 10.25
-8.8785162 0.85772139 19.65344 9.5
11.903498 0.85020703 19.700893 11
12.150627 0.88458264 19.746481 10
12.257879 0.945243 19.719582 11
12.175242 1.1427257 19.719181 11.5
12.240158 1.0821767 19.704794 11.5
11.894772 1.3227798 19.749332 12
12.228022 1.3112512 19.743633 11
-8.9439745 1.4718149 19.657007 11
-8.7932386 1.4640666 19.611116 10
11.984645 1.518662 19.687086 10
12.164758 1.5310816 19.705103 11.333333
12.267925 1.4981223 19.662886 12
11.836452 1.756312 19.765638 13
12.176795 1.6122301 19.720758 13
12.188811 1.9517003 19.732933 13
12.252852 1.8701943 19.70133 12.333333
-8.856741 2.1704021 19.661062 11
12.174333 2.1049547 19.731108 14
12.258299 2.0781012 19.693375 13.2
12.488693 2.1040101 19.603289 12
12.107269 2.2960367 19.722534 12
12.271226 2.3645568 19.672657 13
0.27427065 2.5511572 19.629023 10
1.0914503 2.5427163 19.608667 10
6.3959064 2.4975421 19.603146 13
12.179623 2.4998229 19.717159 14.25
12.227419 2.549206 19.70052 14
-8.9228125 2.6250944 19.605646 13
12.234242 2.6458845 19.713711 14
-1.1593966 2.8393059 19.621662 10
11.960902 2.8157551 19.747002 14
12.186644 2.9435518 19.782043 15
12.299221 2.9370756 19.699158 14
-8.7917137 3.1098459 19.659361 13
11.890052 3.1116517 19.765921 12
12.197797 3.1253054 19.707153 14
12.259748 3.0992959 19.712458 15
-8.6339102 3.4444103 19.66613 14
-8.5966053 3.4173465 19.726698 15
0.47437969 3.5483329 19.648186 13
12.337402 3.5231872 19.732063 15
0.5203523 3.6123457 19.600096 13
12.254429 3.7289987 19.674725 15
-0.015812457 4.2791042 19.625307 14
0.005018407 4.2534108 19.662062 14
-8.6828747 4.5910959 19.661041 13
-6.5726252 4.7713585 19.757895 13
-0.22980908 4.8459792 19.728733 15
-10.330266 5.212501 19.759155 13
-8.6745996 5.2481027 19.606844 14
-8.2181797 5.4050426 19.784948 14
-10.317408 6.0660853 19.757702 14
-10.30828 6.9353538 19.755157 15
12.106527 -0.23261252 19.825947 9
-8.8947353 0.17157994 19.9825 9
12.065493 0.29716703 19.908575 9.5
-8.8934002 0.58793378 19.980579 9
12.142596 0.72042406 19.807013 11
-8.861351 1.1229874 19.919605 10
-8.8596325 1.2223941 19.948587 10
-8.6005812 1.7077492 19.898907 11
12.086409 1.7247379 19.902531 12
-8.8418856 1.8493307 19.94611 11
12.136489 2.121007 19.939873 13
-8.5947895 2.3036447 19.975231 12
-8.8181381 2.529634 19.95072 12
-8.8383961 2.857203 19.882313 12
-8.5963774 2.8767653 19.84425 13
12.008968 2.9371359 19.9837 14
-8.5432835 3.1684442 19.81905 12
-9.4657917 3.4873841 19.964405 11
-8.8520651 3.4126625 19.903519 14
-8.7355232 3.4513376 19.933361 13
0.31334001 3.5182047 19.841866 11
12.068739 3.7612491 19.999092 15
0.7500093 4.1614056 19.8577 14
0.70160383 4.218318 19.823959 14
-8.2665548 4.5767236 19.822962 13
-6.3270864 4.6151428 19.809927 13
0.76718676 4.9351802 19.875322 15
11.674004 0.35722804 20.138496 10
11.932053 0.2329049 20.046776 9
11.973608 0.78758162 20.02446 10
-8.8934479 0.82007539 20.130423 10
11.647014 0.89993441 20.13018 11
-8.6089592 1.1373397 20.046135 10
-8.7308598 1.2648638 20.094433 10
11.752139 1.3267411 20.083422 11
-8.8873825 1.4473168 20.045074 11
11.951018 1.9017487 20.046265 12
-8.8605986 2.1121314 20.059031 11.666667
-8.7166023 2.0462332 20.127569 11
11.658894 2.0008955 20.165539 13
12.034458 2.0300403 20.01704 12
11.668034 2.561357 20.187387 14
11.965755 2.4707844 20.073479 13
-8.8513384 2.7727754 20.050648 12.666667
12.082603 2.6509271 20.03035 13.5
-8.7212944 2.8392744 20.193438 12
11.94198 3.0390654 20.075249 14
12.019752 3.1715353 20.0214 14
-8.8158588 3.2960746 20.05731 13
-8.8549194 3.4472497 20.045948 14
12.017211 3.6350002 20.082592 15
-8.8852339 -0.13685021 20.375034 8
-8.8857212 0.44183454 20.366573 9
-8.852726 1.0179472 20.320704 10
-8.8415051 2.1344748 20.382658 12
-8.7292242 2.1926198 20.315899 11
-8.8778782 3.4566905 20.296864 14
0.78752422 3.6030827 20.238194 13
-8.8482637 0.69418752 20.503244 8.5
-8.869895 0.90687609 20.405949 9
-8.7737675 1.1089137 20.555103 9
-8.8523483 1.3987906 20.427046 10
-8.7714396 1.2571522 20.544716 10
-8.8569002 1.4801238 20.403961 11
12.389164 1.5775777 20.438068 12
-8.8298426 2.2716877 20.599129 11
-8.7151995 2.2478559 20.49621 10.5
-8.4399986 2.2944994 20.497042 10
-8.7928066 2.7315397 20.595009 12
-5.749773 2.8546691 20.494812 11
-8.7129488 3.4071534 20.464586 12
12.522713 4.0996671 20.583176 15
-6.858779 4.3879471 20.423306 13
12.321009 -0.85466218 20.659351 8
12.344617 -0.68228316 20.705193 8
12.388911 -0.40253323 20.78614 8
12.40479 -0.024524197 20.757221 8
-8.8262939 0.24202606 20.636694 8
-8.6515408 0.56515765 20.74147 9
-8.5463142 0.72978991 20.754566 9
-8.6346416 0.85498637 20.734318 9
-8.6387548 1.358809 20.761452 10
-8.8451118 1.5956466 20.646296 10
-8.7652731 1.5888854 20.620419 10
12.133224 1.5701845 20.797501 12
12.361212 1.8927484 20.79446 12
-8.8288832 2.0748689 20.656204 11
-6.9945316 2.5925674 20.675335 11
12.338893 2.4722908 20.787477 13
-8.3643513 2.9324565 20.666563 11
12.47589 2.8502953 20.792091 13
-8.6676569 3.1094322 20.695301 11.5
12.36499 3.3121517 20.709641 15
-8.6950016 3.5033259 20.751793 12
-6.9482183 3.4997501 20.61087 12
12.491595 3.4579213 20.712477 14
-8.5684013 3.7840631 20.796326 13
-6.9547348 3.6141667 20.682613 12
-5.7739406 3.6938601 20.666294 12
-6.7978458 3.8094349 20.622702 13
12.3651 3.8669128 20.798313 15
-8.5915909 4.1129127 20.744244 13
12.503313 4.0453291 20.702927 15
-8.807539 4.2804055 20.746939 13
-8.7820406 4.2539062 20.70546 15
-8.7160606 4.4489703 20.787514 13.5
-8.5384588 4.4694901 20.799589 15
-6.6788621 4.5325632 20.684446 14
-8.8561697 4.8559947 20.659409 13
-8.6749601 4.8954902 20.743195 14
-8.7734194 5.1081796 20.703798 14
-8.9081478 5.3402538 20.7551 15
-8.6932335 5.2924504 20.758781 14.666667
-8.3981037 5.4258647 20.781487 14
-8.5477257 5.6824594 20.798075 15
-8.7940035 5.9831896 20.796415 15
-8.9972143 6.2792711 20.687578 15
-8.6201916 6.3135619 20.789862 15
12.281646 -1.2064348 20.855894 7
12.253282 -0.70321465 20.889708 8
12.240183 -0.33465618 20.864012 9
11.887813 -0.11056399 20.944719 9
12.137132 -0.066284634 20.819679 8.5
12.272986 -0.10022226 20.874905 9
12.119678 0.16404355 20.821587 9
12.220747 0.17043775 20.856964 10
11.869172 0.35154015 20.94379 10
12.214531 0.38227767 20.846249 9.5
11.832329 0.41258526 20.971075 10
12.079891 0.50715458 20.894169 10
12.288956 0.45342198 20.884842 10
12.142464 0.73139995 20.842831 10
12.259724 0.73628139 20.916393 10
11.881209 0.89381355 20.971489 11
12.241448 0.94978434 20.866066 10.5
-8.530652 1.1954184 20.83065 10
12.064683 1.0659029 20.884188 11
12.279375 1.099689 20.901737 11.5
-8.3965139 1.3363881 20.81646 9
11.854979 1.3522282 20.943989 12
12.118217 1.2980157 20.833897 11
-8.6178923 1.5432297 20.852488 10
11.855086 1.4568744 20.986309 12
12.283087 1.5156595 20.903587 12
-8.5286808 1.6649208 20.850908 11
12.021795 1.679722 20.92621 13
12.264988 1.7042592 20.911016 12
11.886987 1.9455103 20.972464 13
-8.294755 2.136884 20.862316 10
11.998788 2.1882665 20.918797 14
12.31669 2.1342428 20.905029 13
11.874448 2.392611 20.957069 14
12.284373 2.2840011 20.916595 13
12.472485 2.2458897 20.816349 12
11.861853 2.5177569 20.988068 14
12.398275 2.5575602 20.870075 13
-8.4350185 2.6998694 20.852032 11
12.090315 2.7310848 20.999477 15
12.244617 2.7014866 20.89012 13.5
-8.5876293 2.9096367 20.912666 12
-7.1604404 2.8474448 20.901693 11
-0.85167146 2.8088322 20.949286 15
12.264806 2.8621919 20.893438 14
12.100342 3.0285022 20.842834 14
12.25545 3.1201918 20.973078 15
12.273098 3.2940636 20.902479 14.5
-8.6448145 3.5265064 20.908968 12
12.276634 3.5043664 20.913994 15
-8.676569 3.7030921 20.807508 13
-8.4642525 3.6571457 20.89892 12.666667
-7.0851684 3.6162641 20.853653 12
12.137098 3.6750026 20.935356 15
-8.5452051 3.8247616 20.814543 14
-7.8897886 3.9487662 20.995262 12
-7.6768899 3.9291537 20.89992 13
12.296042 3.9581747 20.853476 15
-8.71387 4.1205301 20.845257 13
-8.3995361 4.1217909 20.86767 13
-8.4449291 4.355669 20.946281 14
-8.6605406 4.4200153 20.845041 13
-8.4875546 4.5069013 20.865175 13.333333
-7.6332726 4.482233 20.815668 14
-8.6322813 4.7425756 20.807568 14
-7.9997621 4.6366453 20.993589 13
-8.7282028 4.9191375 20.835705 14
-8.363678 4.9863615 20.860418 14
-8.6336517 5.0169573 20.965065 14
-8.7068882 5.2230463 20.848341 13.5
-8.5041494 5.3022289 20.894341 14
-8.6113396 5.4472942 20.888214 13
-8.3806143 5.4342489 20.916294 14
-8.7988195 5.6344171 20.825668 15
-8.5294304 5.7941403 20.880482 15
-8.618845 5.8160262 20.924463 15
-8.3494701 5.874402 20.898596 15
-8.7769136 6.0586481 20.846779 15
-8.4867554 6.1481652 20.86496 15
-8.5105371 6.262794 20.88179 14.666667
-8.3460293 6.3265467 20.879759 15
-8.5885515 6.6200638 20.87809 14
-8.7178631 7.4986324 20.926838 15
-8.5712109 7.6714768 20.938198 15
-8.582346 7.8200769 20.916294 15
11.985238 -1.1171967 21.174992 6
12.122549 -0.76204884 21.02491 8
12.144156 -0.26795024 21.048975 9
11.94297 0.18799265 21.125717 10
11.876018 0.71041679 21.108469 11
12.154779 0.67074203 21.045067 10
11.93174 1.1639 21.133892 12
12.183995 1.2541579 21.06213 11
12.127746 1.6765605 21.103754 13
12.166411 1.8427895 21.111303 12
11.882194 2.1446805 21.111534 14
12.270154 2.0615244 21.074808 12
-8.6048422 2.2597115 21.135851 11
12.239312 2.4390883 21.08934 13
12.225903 2.685173 21.013241 13
-8.5673523 2.9671967 21.068298 12
12.191607 2.8125179 21.028925 15
-6.9597454 3.1747043 21.06415 12
12.155337 3.0258105 21.081591 14
12.187933 3.352797 21.064966 14
12.290308 3.2358098 21.114714 13
-8.5971184 3.456326 21.048109 13
12.021969 3.4545093 21.1926 14
12.085432 3.7504606 21.142757 15
12.248819 3.6332226 21.005304 15
-7.8850451 3.9359643 21.063148 12
11.833448 3.8850996 21.172438 15
12.192043 3.9646919 21.084637 15
12.309916 3.9561129 21.034779 14
-8.8744354 4.1339116 21.097412 12
-8.6058254 4.1531477 21.067101 14
12.11511 4.0379534 21.178692 14.5
-8.5512724 4.3664079 21.033815 14
-8.4107313 4.6672492 21.137232 13
-8.3462505 4.7570777 21.113056 13.5
-8.0434885 4.7995787 21.089312 13
-8.5032969 4.8980546 21.105825 14.333333
-7.8762312 4.8237619 21.054241 13
-8.9265518 5.0340371 21.115402 13
-8.6194668 5.1836796 21.174177 15
-8.511364 5.3726501 21.152859 14.5
-8.7660179 5.797698 21.119932 14
-8.4083166 5.6671801 21.197151 14
-8.9057789 5.8779798 21.104752 14
-8.378212 6.3076916 21.055534 15
-7.9355359 6.4074559 21.035883 15
-8.8927975 6.7414536 21.111189 15
-8.0356493 6.6078005 21.025848 15
-8.5693111 7.5529757 21.045382 15
11.856933 0.37816536 21.339851 10
11.903836 0.95843816 21.392776 11
12.006332 0.95768535 21.227375 10
11.934872 1.5195532 21.299091 11.5
12.03566 1.547561 21.263153 11
11.919142 2.1067264 21.330923 12.5
12.016623 2.1359444 21.256092 12
11.970456 2.5844932 21.310024 13
-8.4467783 2.7391634 21.32555 11
11.906971 2.712265 21.360847 14
12.074198 2.7372792 21.235054 13
-7.9136081 2.9636173 21.32346 11
12.019942 2.869185 21.216087 13
11.952302 3.182169 21.315025 14
11.93448 3.3098564 21.324001 15
12.061652 3.3396015 21.233871 14
-8.4102173 3.5300364 21.34766 12
-8.3733931 3.5749745 21.366161 12
-8.5975666 3.7592039 21.324274 13
12.036847 3.7982163 21.255257 15
-8.5588312 3.9476826 21.309816 13
-8.2849178 3.9903293 21.354408 12
11.829673 3.9160085 21.273964 15
-7.9582787 4.0387063 21.323853 12
-8.5416298 4.3571243 21.374691 13
-8.4197521 4.5419192 21.307064 13
-8.4941034 4.7505684 21.280285 13.5
-8.0815392 4.7163696 21.276192 13
-7.9458652 4.7651863 21.381361 14
-8.2446299 4.8496065 21.334017 13.333333
-8.0897255 4.8433437 21.265984 13
-7.9416199 4.9062037 21.351715 13
-8.5029669 5.1991544 21.317226 14
-7.9095984 5.3664446 21.365179 14
-8.4362593 5.4763412 21.348614 14.5
-7.7465959 5.4675326 21.363266 14
-8.3967981 5.7201357 21.315077 14
-7.9316645 5.7900438 21.386801 14
-8.3208876 6.2578497 21.319363 15
-8.1500959 6.3868995 21.377254 15
-8.3758755 6.4717455 21.384806 15
-8.4021521 6.6808805 21.237665 15
-8.3837185 6.6120796 21.393728 15
-2.9976764 -1.0660661 21.568039 7
-3.019141 -0.22813495 21.583372 8
-2.7958965 0.15084641 21.585701 8
-2.9391665 0.41536433 21.550375 10
-2.4772403 1.4543138 21.553062 13
-7.6471577 3.0302486 21.477507 11
-8.3522778 3.7610586 21.438969 12
-8.541193 3.9773657 21.419697 12
-8.3234406 3.8960891 21.530777 12
-8.3219395 4.469727 21.478109 13
-8.0243177 4.5680499 21.465553 13
-7.6340332 4.5695267 21.578587 13
-8.2369356 4.6377616 21.486601 13
-7.9030485 4.6562223 21.48354 13
-7.5991669 4.7733731 21.52072 13
-7.6786332 5.3891854 21.534027 14
-8.3046522 5.5431576 21.493382 14
-8.2633018 5.7069526 21.411255 14
-3.0531485 -0.91361511 21.623844 6
-3.086524 -0.71905422 21.67503 6.5
-2.9925442 -0.74536932 21.767452 6
-2.9805965 -0.51393944 21.668066 7
-3.1228342 -0.11972715 21.686947 8
-2.9290702 -0.092998378 21.718523 8
-2.9057379 0.081481263 21.690588 9
-3.0618107 0.20605645 21.665392 9
-2.8894062 0.26405489 21.654408 9
-2.8433945 0.4417468 21.673416 10
-8.1673059 3.7849994 21.640835 12
-7.9278798 3.7655122 21.737762 12
-8.0746813 3.8519955 21.645321 12
-7.745388 3.9472044 21.789215 12
-7.8536649 5.4836512 21.665209 14
-7.8647962 6.3744845 21.708933 15
12.398239 -0.41204518 21.961317 8
12.414684 0.18523392 21.959698 10
12.361897 0.49103665 21.977051 10
12.295006 1.0851052 21.919094 11
12.479638 1.5483649 21.878487 11
12.28063 1.6832733 21.899399 12
12.543533 1.8472637 21.982155 11
12.490154 2.1804118 21.85693 12
12.310298 2.2919719 21.907953 13
12.544613 2.4677639 21.953762 12
12.363605 2.9146707 21.937138 14
12.573746 3.0999866 21.946573 13
12.397017 3.3615391 21.968395 14
12.583803 3.7011504 21.89938 14
12.475333 3.8543234 21.995533 15
12.417593 4.0321026 21.958767 15
12.610521 4.388536 21.919127 15
11.902475 -0.65503514 22.115768 8
12.064257 -0.63996917 22.15913 8
12.315736 -0.34419259 22.05476 9
11.906074 -0.1233355 22.129402 9
12.034846 -0.089613184 22.130722 9
12.33623 -0.14531229 22.131279 9
11.907434 0.18102837 22.127451 10
12.384109 0.18503854 22.034941 9
11.912421 0.37334365 22.149582 10
11.936615 0.48995647 22.139977 10
12.140162 0.40989512 22.071478 9
12.309456 0.44432238 22.12569 10
11.916805 0.70755219 22.14072 11
12.032956 0.61273605 22.092625 10
12.391097 0.78420508 22.044823 10
11.974819 0.87147462 22.177479 10.5
12.35554 0.99464154 22.140327 11
11.956253 1.0668654 22.156395 11
12.497777 1.0262673 22.004318 10
12.104338 1.2104602 22.146439 11
12.279135 1.3053052 22.13924 12
11.956499 1.4988576 22.162546 12
12.086106 1.572587 22.168571 12
11.979 1.648826 22.17173 12
12.138423 1.6209245 22.070354 11
12.412529 1.6795166 22.12159 12
12.13507 1.8116562 22.165913 12
12.318518 1.8050263 22.087503 13
11.970838 2.1100097 22.151871 13
12.322238 2.0305855 22.077316 13
-1.7435644 2.3479807 22.13933 15
11.984784 2.2342503 22.174881 13
12.176255 2.240478 22.111866 12
12.310819 2.3510187 22.090307 14
11.921084 2.5476539 22.143698 14
12.121981 2.4105852 22.140064 13
12.331646 2.7270963 22.133913 14
12.114448 2.8789678 22.135904 15
12.224014 2.8720877 22.159218 13
12.340611 3.1059194 22.125439 14.5
12.125392 3.2846391 22.194626 15
12.377245 3.3343966 22.006561 15
12.132438 3.4741435 22.066902 14
12.416027 3.4837894 22.062502 14.5
-3.1665168 3.7412376 22.131371 15
12.308431 3.7478898 22.170532 15
12.100639 4.0976305 22.036217 15
12.39422 4.1520948 22.091621 15
12.225493 4.4112349 22.099876 15
2.5876772 -1.8475446 22.396795 5
12.191732 -0.75106633 22.205128 8
11.90802 -0.27143678 22.287649 9
12.074281 0.01557529 22.368797 9
11.824321 0.27715018 22.238262 10
12.032955 0.22837777 22.203201 9
12.013525 0.44601229 22.28511 9
12.047198 0.62722713 22.36326 10
12.235698 0.81860816 22.25754 11
12.02266 1.0520062 22.307224 10
12.148975 1.2503821 22.288881 12
12.246204 1.2688634 22.297899 11
12.058409 1.4402375 22.244244 11
12.088839 1.725919 22.304853 11.75
12.254822 1.8863046 22.216587 13
12.091673 2.0959957 22.220051 12.5
11.881884 2.2294259 22.339445 12
12.165024 2.3073936 22.315548 14
12.053035 2.4919884 22.362625 12.666667
12.238127 2.484561 22.298431 13.5
12.029606 2.661221 22.221344 13
12.236826 2.913856 22.264252 15
12.101938 3.1349821 22.35998 13.5
1.1070464 3.3792453 22.386726 15
12.044198 3.2988682 22.301498 14
12.238985 3.2455807 22.238949 14.5
1.7451328 3.6103218 22.245119 15
12.04851 3.7472095 22.351673 14
12.106379 3.9836528 22.394955 15
12.277171 3.8308144 22.30611 15
1.2742702 4.0595107 22.225338 14
1.312477 4.7569246 22.269756 14.5
11.741028 0.39379561 22.559668 10
11.70144 0.99108076 22.536362 11
12.057034 1.2447891 22.410547 11
11.692648 1.5717672 22.484911 11
12.06106 1.6301429 22.4272 11
12.030817 1.8710636 22.431442 11
12.052877 2.2492855 22.429169 12
11.977584 2.7052186 22.512241 13
11.683594 2.8366361 22.491859 13
11.872762 3.0340791 22.402634 14
11.993542 3.3409257 22.544472 14
