# .PCD v0.7 - Point Cloud Data file format
VERSION 0.7
FIELDS x y z intensity
SIZE 4 4 4 4
TYPE F F F F
COUNT 1 1 1 1
WIDTH 1370
HEIGHT 1
VIEWPOINT 0 0 0 1 0 0 0
POINTS 1370
DATA ascii
5.7309446 0.85527647 3.1328671 12
5.848866 0.91650426 3.1048522 12
5.7372952 1.1286631 3.1166089 13
5.8328743 1.1389523 3.1340961 13
5.7291031 1.2909746 3.0708535 13.75
5.7244473 1.4895122 3.1360605 14.25
5.6936855 1.6114146 3.1890788 15
5.4389176 -1.2541647 3.3031411 3
-1.6107001 -1.0251912 3.3170433 2
5.4632435 -1.1041638 3.2596219 4.3333335
5.4384155 -0.95830059 3.3266912 5
5.4363213 -0.67832935 3.3046618 7
-1.6337565 -0.52400929 3.32357 2.4166667
5.4509344 -0.29932517 3.3098826 8
5.4456201 0.079117149 3.3219185 9
5.4581952 0.29812843 3.2387047 9
5.4570847 0.47299245 3.3137963 10
5.7044811 0.83511126 3.3628201 12
5.7445683 1.0675989 3.2506163 13
5.7051792 1.316535 3.2382462 14
5.6969366 1.5388312 3.2534356 15
5.4704223 1.9659765 3.3581247 13.5
5.6429839 1.9612927 3.2231026 13
5.4856334 2.3202968 3.3313265 15
5.6465626 2.4080198 3.2236261 14
5.4671717 2.9038749 3.38272 15
5.6609545 2.8668365 3.2042694 15
-1.6102033 -1.4188691 3.5593786 0
5.447876 -1.3369081 3.5378518 4
-1.5864708 -1.0915253 3.4992619 2
5.3790646 -1.0602416 3.4794006 6
5.4310241 -1.098176 3.4990623 4.6666665
5.4511294 -0.86302167 3.4569159 5
-1.6458073 -0.60638118 3.5461802 0.5
-1.576151 -0.72222757 3.5236466 2.0999999
5.4594173 -0.70958352 3.5120525 6
-1.6405636 -0.54459888 3.5170183 1.5
5.4430838 -0.26580322 3.4631562 7.5
5.3965049 0.059649631 3.4880409 9
5.4529743 0.36395997 3.4550748 10
5.4280348 0.49352524 3.4997816 10
5.5356579 0.68656576 3.5705218 10.5
5.6623116 0.76408154 3.5519674 11
5.7178578 0.90299362 3.5534616 12
5.5363593 1.1625353 3.572834 12
5.7327805 1.0554843 3.5302267 13
5.7096095 1.2870501 3.5989254 14
5.5419464 1.5939705 3.4643776 15
5.6946096 1.4931313 3.5221391 14.5
5.5367126 1.630064 3.5435514 12.5
5.4599085 1.9302325 3.5584064 14
5.6024528 2.111738 3.5615082 13
5.4741769 2.275218 3.5536675 15
5.522666 2.5020595 3.4983602 14
5.6021833 3.0271893 3.5917311 15
-1.6404426 -1.5181857 3.7288904 0
-1.6222599 -1.3229262 3.6687746 2
5.3878822 -1.2935362 3.6108451 2
5.4294968 -1.2348295 3.7093842 3.4000001
-1.6048733 -1.0253227 3.7672718 0.5
-1.5975339 -1.0785977 3.7741053 1
5.3804154 -1.1173512 3.6917491 3
5.4313922 -1.0895342 3.7060726 5
-1.6002244 -0.9622786 3.6476135 0
-1.5817862 -0.82450479 3.6810985 1.75
5.4839563 -0.95955503 3.6807785 5.5
-1.6194198 -0.63434315 3.6498239 2
-1.5952922 -0.75682282 3.7181947 3
5.3898358 -0.67524815 3.7398434 7
5.4167986 -0.65981889 3.6823058 6
-1.6887847 -0.51559579 3.6885467 3.5833335
5.5385232 -0.55132431 3.6733866 7
5.4491835 -0.31937084 3.7171707 7.5
5.5491958 -0.11522259 3.7004881 8
5.4285259 0.14819802 3.780715 9
5.5601482 0.320813 3.6932697 9
5.3912053 0.79091632 3.7038584 11
5.4756002 0.75378674 3.7036803 11.222222
5.4611692 0.89609748 3.7269301 11.75
5.6746907 0.85996866 3.6443317 11.666667
5.8370199 0.84100276 3.633846 11
5.4777126 1.1044797 3.7032313 12.473684
5.6806107 1.0932362 3.6541679 12.333333
5.4677739 1.3001993 3.7049754 13.368421
5.7118335 1.2669427 3.6253264 13.5
5.9333167 1.3539654 3.6970246 13
5.4795051 1.4995706 3.6891222 13.923077
5.6681323 1.5156951 3.6552665 13.666667
5.856596 1.5877683 3.6528261 14
5.4739118 1.6770788 3.6813517 14.111111
5.6975212 1.6079863 3.6061091 15
5.4778671 1.9012599 3.6857371 14.25
5.466013 2.0790973 3.7330577 14.5
5.4936018 2.2727437 3.6889725 14.75
5.4595942 2.4817734 3.6896167 15
5.5336628 2.6647465 3.695466 15
-1.6297221 -1.2067082 3.8536782 0
-1.6214727 -1.1874686 3.8176174 1
5.4439363 -1.1311445 3.9169579 4
-1.6491688 -0.88935971 3.9137485 1.6666666
5.4250007 -0.98159742 3.8202558 5
-1.8761684 -0.76949769 3.9967008 3
-1.7181733 -0.69729835 3.9151616 1.8
5.4780459 -0.62696683 3.8500166 7
-1.8851179 -0.52182585 3.9496608 3.8
-1.7437788 -0.53716236 3.8402464 3.6666667
5.4352717 -0.40530723 3.8956409 7
5.4847345 -0.22671428 3.8755569 8
5.4188495 -0.12113566 3.9774022 8
5.4884987 0.17261095 3.8784571 9
5.4620781 0.50795662 3.939038 10
5.469243 0.76500887 3.8311117 12
5.4685936 0.96893525 3.830864 13
5.4673524 1.1285161 3.806154 13.666667
5.4669003 1.3559427 3.8209612 14.75
5.437396 1.4907383 3.9084997 14
5.4703946 1.8362365 3.9257126 14
5.4801087 2.2050259 3.9145241 15
5.6262083 2.7252815 3.8559875 15
5.4105148 -1.2209048 4.1579857 3
-1.7164004 -1.0957735 4.0397143 0.5
5.399725 -1.1668056 4.0434651 4
5.4160089 -1.1156478 4.110889 3
-1.7370189 -0.83216536 4.0848413 3
5.436563 -0.84396678 4.1165829 4.6666665
-2.6628537 -0.65213585 4.1497335 3
-2.2894955 -0.62611228 4.1691046 3.5
-2.0879033 -0.65660512 4.1524644 1.4
-1.937335 -0.65303111 4.0442438 2.5
-1.7327954 -0.79142344 4.0552034 1
5.3927722 -0.67032003 4.0341091 7
5.4284735 -0.69040835 4.0894098 6
-2.7392936 -0.54038233 4.1211219 4
-2.1086478 -0.55179155 4.115015 3
5.4791827 -0.59720081 4.1112275 5
5.4393311 -0.35445675 4.0553703 6
5.442121 1.0311291 4.1961212 12
5.4659247 1.4589601 4.0505905 13
5.6040525 1.8149732 4.1975098 13
5.3607259 -1.2930918 4.212326 2
5.4200029 -1.2593927 4.3152022 2.5999999
-1.9654882 -1.0142059 4.2212367 0
5.3772287 -1.067735 4.3663645 5
5.4154191 -1.0901495 4.3023515 3
-2.612695 -0.87159312 4.2545166 1
-1.9721006 -0.88799685 4.2476907 1
5.4420891 -0.81988555 4.2832499 5
-2.5241036 -0.73297548 4.2582555 0.5
5.3713832 -0.59701473 4.3435555 7
5.3894091 -0.19358513 4.3484001 8
5.3815742 0.20916998 4.3710785 9
5.4231472 0.51583058 4.2304001 10
5.3967628 0.61433959 4.3518076 10
5.4300237 1.3742526 4.2990785 15
5.4263501 1.7885712 4.3119798 14
5.5620475 1.9800733 4.361558 13
5.4072685 2.1767397 4.3329477 15
5.6042504 2.2022917 4.3564577 14
5.3974257 -1.2004032 4.5001006 4
5.4019861 -1.2375048 4.5480223 4
5.3947215 -1.133534 4.4195552 4
5.4220219 -1.0578032 4.47013 3
5.394649 -0.9733507 4.5130606 6
5.4255733 -0.93786836 4.4775805 5.25
5.4396262 -0.61131507 4.4671836 6.3333335
5.4384413 -0.23014002 4.478838 8
5.4368811 0.14565346 4.4505901 9
5.4635925 0.53644127 4.5227642 10
5.474678 0.91430312 4.5803738 11
5.4470325 1.2469157 4.4750247 13
5.4018388 1.4353944 4.4586706 13
5.3980951 1.7992753 4.4055481 14
5.4403839 1.8855766 4.4107189 15
5.4933596 2.1055148 4.4890661 15
5.4257965 2.2453849 4.4809208 15
5.3886752 -1.2236283 4.7583137 4
5.4149003 -1.2671088 4.6489391 3
5.3914342 -1.05401 4.7641044 4
5.4153605 -1.1243169 4.6694489 3.5
5.3622127 -0.97484314 4.6645918 6
5.4334531 -0.8691594 4.6870689 4.6666665
5.3955855 -0.63979703 4.7695055 6
5.4091778 -0.6096192 4.7387052 6
5.4266496 -0.29681006 4.6634765 7.5
5.4174051 0.944565 4.7155466 12
5.4847131 1.275611 4.780344 12
5.4986596 1.6604646 4.7627859 13
5.4032884 2.0961704 4.7529945 15
5.5015221 2.4371681 4.7731848 15
5.4147453 -1.2235031 4.8532343 4.5
5.3766413 -1.0796835 4.9960217 4
5.4049535 -1.0391804 4.8828354 3
5.3873954 -0.84415746 4.9015746 5
5.4155488 -0.89399409 4.9544773 5.5
5.4173899 -0.63119864 4.9390759 6
5.4345007 1.5795022 4.828167 13
5.5718713 1.7092512 4.9145813 13
5.434752 2.0062001 4.9282093 15
5.4186215 2.2946765 4.9885187 15
5.5835085 2.5177977 4.8347464 15
5.3636284 -1.2965057 5.1748686 2
5.402915 -1.2600087 5.0626554 2
5.3900123 -1.0955851 5.1364536 4
5.3691711 -0.96988583 5.066637 5
5.4578266 -0.91048372 5.0945988 5
5.3586626 -0.61662889 5.1206241 7
5.4061446 -0.57767737 5.1901245 7
5.4013143 0.39940941 5.1661801 10
5.4133167 0.40339202 5.1554351 9
5.3904305 0.88887954 5.1063447 11
5.3858685 1.7028495 5.0011563 14
5.5385032 2.7043121 5.0009642 15
-1.80519 -1.2470145 5.2907081 0
-1.7658072 -1.2788237 5.3337283 1
5.3787737 -1.2617376 5.3231544 3
-2.5250773 -1.1186738 5.3104725 0
-2.2575736 -1.034673 5.2700295 1
-2.1147001 -1.0867472 5.3176732 1
-1.9531127 -1.1657392 5.2749877 1
-1.7341452 -1.122839 5.3800197 0
-1.4760096 -1.0357866 5.337513 1
-1.36487 -1.1355379 5.345593 1
5.3814373 -1.1511025 5.3087416 3.75
5.40345 -1.0722332 5.2596388 3
-2.4733658 -0.87493598 5.301815 1
-2.3797128 -0.91387951 5.2728472 0.5
-2.0548837 -0.98838323 5.3282299 1
-1.3385441 -0.96139836 5.3838816 0.5
5.3809814 -0.84506816 5.2797914 4.5
5.5003619 -0.93848789 5.2456379 6
-2.5060089 -0.68156242 5.3684602 2.5
-2.3032458 -0.71840161 5.3656716 0.16666667
-2.0909462 -0.72867018 5.3889461 0.5
-1.881878 -0.62436026 5.3714676 2
-1.6387279 -0.69910651 5.385046 0
-2.335182 -0.55463135 5.3888731 2.8
-2.0956776 -0.53509116 5.3785319 3.1666667
-1.9998873 -0.53816247 5.3879089 1.5
5.4080448 1.1668456 5.2303076 12
5.4067254 1.5524743 5.3267183 15
5.3763976 1.975094 5.3839869 15
5.4684029 1.9459807 5.3309364 14
5.5504379 2.0247366 5.3509827 14
5.5234432 2.2393615 5.2489281 14
-1.2148632 -1.2892818 5.5308762 1
-1.1689768 -1.2325748 5.4420314 0
5.368279 -1.2508893 5.4766831 5
5.4056349 -1.2427757 5.5742302 4.5
-1.4228364 -1.1026775 5.4179869 0
-1.2275198 -1.0959097 5.4741096 1
-1.1785324 -1.0263333 5.5944433 0
5.3792019 -1.1085138 5.4849882 3.5
-1.2257859 -0.87027484 5.5179229 1.5
5.4112864 -0.89683545 5.4635382 4
-2.4761202 -0.66349572 5.4381156 3.6666667
-2.2814417 -0.6083203 5.4083066 2
-2.0118251 -0.67146909 5.4122725 0
-1.4638767 -0.68337154 5.4302969 2
-1.3161502 -0.65815032 5.5393152 2.125
5.4237266 -0.60679573 5.40732 5
-2.4709792 -0.57227385 5.4427624 3.5
-2.0284717 -0.53539884 5.4044123 3
-1.6970201 -0.53684396 5.4707489 3.25
-1.5205159 -0.56279159 5.4494495 1.5
-1.366683 -0.53247154 5.5779305 3.75
5.4689622 -0.50013363 5.5406885 7
5.4046087 0.37439016 5.5560155 10
5.4089565 0.68064487 5.5965614 10
5.3784413 0.91190493 5.5868263 11
5.517282 0.87977028 5.5854616 11
5.4163923 1.4723651 5.5909195 14
5.4083815 1.6924502 5.5104523 15
5.4251828 1.9132528 5.4308157 15
5.4659009 2.2691503 5.5853062 15
3.2192192 -1.4511865 5.7651138 0
3.4804788 -1.2855203 5.7294626 1
5.3611121 -1.266767 5.6466303 3.4000001
5.4843421 -1.2640886 5.7189789 5
3.292069 -1.0633347 5.7400789 2
3.5310068 -1.092355 5.7306471 2
5.3813615 -1.1183385 5.7659793 3.3333333
-1.1838875 -0.89022261 5.6084991 1
5.3762321 -0.87781012 5.6833725 5
5.4132614 -0.93616903 5.6790886 5
-1.2320764 -0.69426858 5.6260586 2
-1.1964548 -0.69803053 5.6912565 2.5
5.4214935 -0.68440491 5.6853952 5
-1.3020918 -0.56912529 5.6514063 2
5.355041 0.44915992 5.7950273 10
5.3862314 0.74977934 5.7313108 11.5
5.4430451 0.73223096 5.7102866 11
5.620584 0.71317208 5.7756357 11
5.3871722 0.89017123 5.7114859 12.25
5.4294772 0.90288919 5.7039666 11.615385
5.6697512 0.93224049 5.7711868 12
5.3948836 1.0711232 5.7121754 13
5.4588804 1.1083717 5.7315536 12.666667
5.3853769 1.3166112 5.7187009 13.571428
5.4580879 1.2890919 5.7026234 13.125
5.6473136 1.2411056 5.7853789 13
5.3781972 1.5250386 5.7420998 13.666667
5.4716425 1.4862257 5.7388182 14.357142
5.6158419 1.4553568 5.7637234 15
5.4232888 1.7052748 5.7259703 14.5
5.4210963 1.853171 5.7236543 14.666667
5.4157853 2.0700822 5.7039051 15
-1.2992715 -1.6218854 5.8947477 0
3.252224 -1.532932 5.921133 0
3.2877893 -1.3239049 5.8843894 0.83333331
5.3654466 -1.2893064 5.9138427 2.6666667
5.4485817 -1.2323277 5.8418188 5
3.3067689 -1.1306417 5.9225125 2
5.3601546 -1.1344944 5.8223991 3.6666667
-1.1339595 -0.88680625 5.8771343 0.25
5.3314848 -0.89318377 5.8209939 6
-1.1655847 -0.67891687 5.9513383 2.1666667
5.3745852 -0.61774564 5.9079027 6
5.3916535 -0.37319872 5.8399925 6
5.4812231 0.15005255 5.9986391 9
5.3916378 0.76131177 5.8337064 12
5.5408692 0.72791374 5.8347082 11.571428
5.6064262 0.76926374 5.8900876 12
5.393712 0.96478546 5.8293967 13
5.5009747 0.91577733 5.8508015 12.75
5.6690941 0.92925674 5.8863063 12
5.471035 1.1109304 5.8504233 13.666667
5.6489892 1.1255504 5.9075174 13.142858
5.3920374 1.3543596 5.8472476 15
5.5111203 1.3011972 5.8502164 14
5.6474476 1.2988691 5.8495779 13
5.3962336 1.5973084 5.8372726 15
5.4810743 1.5174209 5.8501949 14
5.6133924 1.4728924 5.9018655 14.333333
5.3863358 1.7353345 5.9089127 14.333333
5.4592004 1.6842334 5.8957086 14
5.3708172 1.922506 5.9373503 15
5.4212284 1.8147106 5.903265 15
5.3930449 2.117775 5.8857985 15
5.4927297 2.1072009 5.9431667 14
5.4997849 2.4953628 5.9379692 15
11.806713 2.5102212 5.875453 14
3.1946604 -1.5170164 6.180676 1
3.2806194 -1.4492483 6.1517835 0
3.5113909 -1.5356969 6.1913433 0
3.3012626 -1.2527782 6.1445012 1.3333334
3.4946408 -1.3505874 6.1844926 1
5.3584008 -1.2593374 6.1419029 2.6666667
5.4521751 -1.2400677 6.1027083 5
3.2718029 -1.136206 6.1801519 2
3.5180898 -1.1743288 6.1877871 2
5.378119 -1.1254178 6.0740204 3
5.3480339 -0.90547204 6.0832534 5
5.4662938 -0.88516706 6.0487337 6
-1.1143979 -0.75425112 6.1396718 0.5
5.3930078 -0.7123071 6.1466265 5
-1.2741007 -0.49510604 6.1487627 0
5.3879504 -0.42653772 6.1430311 6
5.4696746 -0.53800106 6.1029997 7
5.3647714 -0.22296101 6.0096135 8
5.414453 -0.21553117 6.0793228 8
5.3951015 -0.14258693 6.1553392 7
5.3608842 0.10135098 6.0180092 9
5.3875203 0.42507371 6.1274929 9
5.4747105 0.47136489 6.1674104 10
5.3954949 0.65829271 6.1057844 10
5.4355774 0.6762169 6.0798788 11
5.7023277 0.91692233 6.1472316 12
5.7596769 1.1333508 6.1758747 13
5.5868764 1.2941358 6.0799131 14
5.6167526 1.3855841 6.1232872 14
5.5963564 1.516921 6.0301371 15
5.6221094 1.5116663 6.1628323 14.5
5.4164352 1.7801442 6.0755386 15
5.4257383 1.8578863 6.0998907 14.5
5.4523406 2.185313 6.0033994 15
-1.1921732 -1.5957665 6.3596382 0
3.2841308 -1.544376 6.2543693 0
3.275903 -1.3117015 6.2125096 2
5.3454986 -1.3237057 6.2781844 3
3.2811632 -1.1030045 6.2123938 3
5.3455544 -1.1054914 6.3049474 4
5.360023 -0.83980745 6.299758 5
-1.1294469 -0.67556489 6.2804947 1.25
5.3612332 -0.60488552 6.2133503 6
-1.2708014 -0.45925876 6.2613802 1.0416666
-1.3582506 -0.30431408 6.3200374 2.625
5.3841963 -0.12753135 6.3837376 8
5.3638248 0.34848031 6.2446299 10
5.3799443 0.49281749 6.2883835 10
5.5870929 0.72207427 6.3665752 11.5
5.6540723 0.79749978 6.2355957 12
5.7064152 0.90016824 6.2794304 12.333333
5.5874653 1.0924081 6.2098875 13
5.6807165 1.0668883 6.3256416 13
5.5790396 1.3019345 6.2802839 14
5.6106806 1.3320566 6.3759212 14.5
5.5127673 1.4936005 6.2903175 14.4
5.6173959 1.4999214 6.3121362 15
5.4389133 1.6699827 6.3092656 14.5
5.404707 1.8533132 6.3542705 14.5
5.3988848 2.1677744 6.3602347 15
-1.1334542 -1.3684652 6.4543419 1
5.3614707 -1.242336 6.5266466 3
-1.1297445 -1.0991452 6.5271845 2.5
5.3547854 -1.0650785 6.4804726 3.3333333
5.4286265 -1.1775507 6.4706059 5
-1.1224192 -0.81062889 6.5866022 4
5.3515677 -0.89685583 6.5480042 4.6666665
5.4800553 -0.88353759 6.476521 6
-2.5098715 -0.76267159 6.5992093 0
-1.2929935 -0.45006824 6.5347977 3.3333333
5.3704519 -0.53354245 6.4628105 7
5.4972749 -0.54194027 6.5139809 7
-1.3471819 -0.31315455 6.5163231 3.4305556
5.3923368 -0.21260872 6.5855713 8
5.5000491 -0.202851 6.5336571 8
5.3921719 0.10668521 6.5901551 9
5.4944873 0.13512564 6.544632 9
5.5780349 0.72916448 6.5180526 11.8
5.6082716 0.76855087 6.5394478 11.6
5.5692773 0.91595262 6.5344338 12.166667
5.6317601 0.90484786 6.5374584 12
5.5777402 1.109127 6.5160413 13.428572
5.6384888 1.1042851 6.5488853 12.5
5.5861273 1.3188494 6.5309167 14
5.6082659 1.3002743 6.5271854 13.75
5.5309429 1.5277388 6.4806418 14.3
5.6458797 1.4829947 6.5393052 13.666667
5.3948135 1.6336569 6.5020285 13
5.4052687 1.9449434 6.5190182 14
5.393259 2.2528477 6.5069427 15
5.3703995 -1.2613006 6.6954532 3
5.3494248 -1.1283532 6.7093244 4.2857141
5.3805294 -0.84966147 6.6248226 6
5.3531275 -0.68991035 6.6791177 6
-1.2707256 -0.47271395 6.6444736 3.0833333
-1.3116174 -0.38785368 6.6554909 3
-1.4065239 -0.19078487 6.7987003 5
5.3935871 0.42418319 6.6410089 10
5.5928993 0.72362661 6.7226005 12
5.6176372 0.75672466 6.7111144 12
5.5891204 0.80454081 6.6462626 12
5.6224608 0.83956844 6.6780281 12
5.5813885 1.1270545 6.6377583 13.666667
5.6467185 1.0985996 6.6789145 13
5.5939713 1.2341808 6.6391702 14
5.6240878 1.3042971 6.6535435 14
5.3873434 1.5362598 6.7049804 13
5.5507755 1.4976196 6.6516862 14.8
5.6170855 1.4365904 6.6946139 14.5
5.3543725 1.8217607 6.7877998 15
5.4765034 1.8193964 6.7005801 14
5.3888936 2.1081855 6.6724744 15
5.5147309 2.1677012 6.6641717 15
9.662426 2.4009051 6.7891202 15
5.3417792 -1.3392389 6.9018431 2.5
5.3382897 -1.0950713 6.8994012 3.6666667
5.4744344 -1.1939125 6.8215122 5
5.364325 -0.97100258 6.9263639 4
-1.109717 -0.68512362 6.9703245 1.5
5.3713379 -0.69339192 6.8392992 5
-1.4085408 -0.2172239 6.9369173 5.5
-1.3805175 -0.29370171 6.8532596 3.4166667
5.365448 -0.12837552 6.856133 7
5.3671932 0.15170772 6.9237385 8
5.4606438 0.69341862 6.9896412 11
5.6480384 0.89331663 6.8264871 12
5.6494937 1.1347516 6.8107519 13
5.6519136 1.3278438 6.8120666 14
5.5824251 1.4143152 6.8209352 14
5.6262751 1.5508894 6.8021088 15
5.3157196 -1.2709029 7.0756822 3.2
5.3466163 -1.1067959 7.1847253 3.3333333
-1.0886019 -0.80391121 7.0364418 0
5.328886 -0.8189553 7.0672174 6
5.367393 -0.69460315 7.0164433 5
-1.2739146 -0.46883738 7.1323261 2.5
-1.4177221 -0.29481292 7.1713333 3
-1.3769958 -0.26872146 7.1284933 5.6666665
5.3765659 0.15438738 7.1795483 8
5.4720302 0.12267619 7.1175303 9
5.3718758 0.43326065 7.006258 9
5.4148102 0.58415318 7.0099216 11
5.32372 0.60046196 7.1191912 11
5.4314222 0.67432064 7.0438561 11
5.6524601 1.0638607 7.1939135 13
5.3359361 -1.270383 7.2509475 2.6666667
5.364398 -1.0558108 7.294394 4.5
5.4266376 -1.1111479 7.3578401 5
5.3563418 -0.96449661 7.2512612 4
5.4548759 -0.83578157 7.2176328 6
5.3404207 -0.75569201 7.3870263 5.5
-1.2738118 -0.47213611 7.3487391 1.125
5.336112 -0.48257786 7.3157444 6.5
5.4599552 -0.51671451 7.2136188 7
-1.4149818 -0.21630359 7.3561358 4.75
-1.3650246 -0.29743683 7.3141379 3.5462961
5.3082328 -0.26094452 7.2470398 8
-1.4217489 -0.18120959 7.300108 5.5
5.4290266 0.6639089 7.3433375 11
5.5926323 1.5061418 7.3543272 15
5.3872304 1.7090524 7.2190924 13
5.3822756 2.0222759 7.2174397 14
5.371346 2.3377781 7.2083611 15
5.3448324 -1.2652837 7.509212 2.5
5.3304973 -1.0948768 7.4353466 4
-1.7021835 -0.7008996 7.4792118 0.75
-1.6721258 -0.55913532 7.4582944 1.5
-1.289373 -0.45748472 7.4744287 2.55
5.3755274 -0.45153707 7.4361086 6
-1.4020641 -0.20291159 7.4295268 5
-1.350803 -0.32814729 7.4632506 3
5.3522987 -0.20705178 7.4781041 8
5.3544073 0.16045859 7.558517 8
5.3104076 0.2647298 7.5630202 10
5.4773784 0.67162073 7.4028397 11
5.6294146 0.85552084 7.4706802 12
5.6653972 1.0844522 7.5094352 13
5.6230087 1.2991858 7.4961162 14
5.5881853 1.5219976 7.4004536 15
5.636229 1.5153552 7.5921955 13
5.2934561 -1.2290461 7.6835375 3.5
5.3253365 -1.0687122 7.71314 4.1999998
-1.0979437 -0.70035481 7.6999497 4
-1.3475367 -0.35234833 7.6246467 2.5
5.3793468 0.130638 7.7137518 8.5
5.3625016 0.46563855 7.7618551 9
5.3841715 0.7818296 7.7686858 12
5.5496726 0.7359001 7.7835698 10.666667
5.6132631 0.74959743 7.735858 11
5.3781128 0.91056985 7.7930374 11.333333
5.5810137 0.940382 7.7377501 11.8
5.6356955 0.94452202 7.7462602 12
5.5488782 1.1345319 7.7740026 14
5.6184278 1.0869536 7.7249503 12.666667
5.5773339 1.2361689 7.7445884 14
5.6331553 1.2594771 7.7310352 13
5.3653479 1.5161159 7.7630701 14.25
5.5614004 1.507673 7.7178469 14.5
5.6361589 1.4199959 7.7190094 14
5.380177 1.6912829 7.7193003 14.428572
5.378583 1.8946402 7.7043891 14.2
5.3739572 2.1291959 7.6894779 14.666667
5.3854833 2.3097734 7.6627755 15
5.3585205 2.5085235 7.7360315 15
5.2999654 -1.2721577 7.8964386 2.6666667
-1.1103429 -1.0208794 7.9461012 1.5
5.3803587 -1.0591917 7.8685813 5
-1.1065034 -0.81025863 7.9315252 3
5.328053 -0.74530888 7.8743577 5.5
5.3285341 -0.46880418 7.8594213 7
5.3933692 -0.12934825 7.8849187 8
5.3307385 0.071304753 7.8005977 9
5.3979688 0.49186921 7.841126 10
5.353529 0.71431035 7.8456278 11.555555
5.4887958 0.71405929 7.8266344 11.5
5.3539982 0.91394269 7.8758326 12.238095
5.5256028 0.84138113 7.8847313 11.5
5.3537745 1.1084173 7.8683867 13.041667
5.5295076 1.0918729 7.8443751 12.25
5.6221166 1.0879915 7.8453054 13
5.3537159 1.2977442 7.8581834 14
5.5043154 1.3267654 7.8458495 13.4
5.6204042 1.2979856 7.8520536 14
5.3581858 1.4924053 7.8632717 14.454545
5.4781508 1.4473594 7.8535075 12.833333
5.6088276 1.4718106 7.8540831 15
5.3450537 1.6833117 7.8963795 14.5
5.4468303 1.6696533 7.8602448 14
5.3788462 1.8422693 7.8034043 15
5.4715586 1.9446735 7.8362675 15
5.4205298 2.0803573 7.887207 15
11.780562 2.6000373 7.8591385 14
5.3206511 -1.29166 8.1095943 3
-1.1318083 -1.1935643 8.1116953 0
5.3280573 -1.062542 8.1307106 4.5
5.2913623 -0.74282157 8.1059895 6
5.4235282 -0.77771235 8.1437597 6
5.3626375 1.5554256 8.1216154 13
5.3770165 2.2328408 8.0509224 15
5.3547568 2.5202405 8.0615015 15
5.3022776 -1.3070337 8.3157015 2.5999999
5.3184838 -1.1205422 8.2805033 3.6666667
5.4198756 -1.0611334 8.2786694 5
-1.1219877 -0.88954473 8.3898191 0
5.3148999 -0.95614469 8.2835865 5
-1.2686777 -0.61474639 8.3660212 1
-1.1291106 -0.67786419 8.3700581 1.875
5.3376198 -0.72590744 8.2951307 5.5
-1.3073887 -0.47276372 8.3228455 1.46
-1.1303976 -0.53456283 8.3713093 4
5.2891002 -0.45831507 8.2647209 6.5
-1.3513598 -0.32795697 8.2181625 3.5
5.3499269 -0.22423942 8.2538271 7
5.3485031 0.49504825 8.3784752 10
5.3670168 1.2774757 8.2553883 12
5.326354 1.9086084 8.3157349 13.666667
5.4090891 1.8312167 8.3424158 15
5.374989 2.0065334 8.2269573 15
5.3251419 2.2514863 8.3501797 14
5.2909827 -1.3210284 8.530879 2.6666667
-1.0749954 -1.1532651 8.5543089 2
5.2893572 -1.1452924 8.4912663 3.5
-1.0642326 -0.99473131 8.5872107 3
5.2640843 -0.96405482 8.5859337 5
-1.0986383 -0.68676245 8.4728041 4.75
5.2802896 -0.71732444 8.4864731 6
-1.2799904 -0.54004002 8.5535183 0.875
-1.1510997 -0.53906608 8.4036703 3
5.2605519 -0.47065428 8.5212402 7
5.3769937 0.74262995 8.5660419 11
5.3646522 1.7027754 8.5491037 14
5.3929567 1.9444038 8.5652733 15
5.3007002 -1.275815 8.6751585 2.5999999
-1.1109575 -1.0835987 8.7264948 1
5.305665 -1.0205805 8.6484432 4
5.2942476 -0.96929812 8.680418 5
5.30618 -0.70516151 8.6476469 6
5.3112736 -0.47577706 8.7151871 6.5
5.3264999 -0.28757951 8.7316542 7
5.3405004 0.65790713 8.6041183 10
5.2876253 0.83111376 8.6594925 12
5.3564487 1.2743323 8.750864 12
5.3318362 1.5832958 8.660223 12
5.3471375 1.9454639 8.6481791 14
5.3738751 2.0218301 8.6286554 14
5.34091 2.3824296 8.7982121 15
5.3458686 2.6616063 8.6967735 15
-1.1552663 -1.5789405 8.8394337 0
-1.099936 -1.2048391 8.9527874 1
5.3308873 -1.2593997 8.9088345 4
5.2821846 -1.181408 8.8699379 3.5
-1.2061024 -0.89699149 8.8568993 4
5.3185401 -0.95136648 8.8829689 4.6666665
5.3220668 -0.44097608 8.8748722 7
5.3312044 -0.13476603 8.8949289 8
5.3381863 0.57021588 8.9889841 10
5.3468199 0.70784098 8.9745502 11
5.3610058 1.0020587 8.8812428 12
5.3370152 1.3988587 8.8355188 12
5.3595815 1.5944203 8.8084202 14
5.35147 1.738137 8.9135456 13
5.3771987 1.8609327 8.9979725 15
5.3424606 2.0681012 8.9057407 14
-1.1992648 -1.5476408 9.0200443 0
5.2673464 -1.2335128 9.0472126 3
5.2765284 -1.1271739 9.1095381 3.7777777
5.3322325 -0.97086108 9.132143 4
-3.5628624 -0.70052081 9.1062946 3
5.3324938 -0.68303198 9.1486664 6
-3.6474512 -0.50108653 9.1433039 4.3333335
-3.5733068 -0.48212552 9.1232796 4.3333335
-3.6612625 -0.29439119 9.1596508 5.9166665
-3.5751574 -0.28384966 9.1325827 6
-3.5987225 -0.13667171 9.1838341 7
5.3932896 0.08393833 9.1774836 9
5.278173 0.26274362 9.0235853 10
40.383953 8.6310339 9.157217 14
-1.2530457 -1.4419253 9.3873568 1
-1.1826382 -1.2468847 9.388545 0
5.2692184 -1.2771888 9.2995529 3
5.270937 -1.1392075 9.3067045 4
5.3204732 -0.90556389 9.2372675 5
-3.6065094 -0.66197413 9.2625399 3
-1.1816727 -0.7897222 9.2586594 4
5.2978988 -0.67195165 9.3038654 6
-3.6757503 -0.45320594 9.2206917 5
-3.5555513 -0.477945 9.3922644 4.5
-3.6388605 -0.34475571 9.2398682 6
-3.5722423 -0.29457548 9.2669849 5.9000001
-3.6520784 -0.15901601 9.2141943 7
-3.5495195 -0.17443606 9.3511972 7
-4.4019613 0.14439188 9.3307438 8
-4.3352609 0.15719691 9.3465328 8.25
-4.0194802 0.15751566 9.3632498 8.833333
-3.9752088 0.11912654 9.3632584 8.6000004
-4.331111 0.30033514 9.3634138 9.181818
-4.0715137 0.34265339 9.3652267 10.25
-3.9780097 0.27870804 9.3712444 9.8461542
5.2715578 0.20046863 9.2827482 10
-4.35568 0.48548999 9.3618212 9.8214283
-4.046824 0.52582771 9.372798 10.5
-3.9759471 0.48846939 9.3760386 10.617647
-4.3492908 0.69531411 9.3658371 11.038462
-4.1648774 0.61774158 9.3586798 12.5
-3.9593647 0.69743252 9.379056 12.055555
-4.3288593 0.88980424 9.3707628 11.642858
-4.0947299 0.84374094 9.3672895 12.666667
-3.9585602 0.87381989 9.3801708 13.25
5.3293376 0.96876973 9.3808517 13
-4.333323 1.0805141 9.3715258 12.958333
-3.9468725 1.0699208 9.3809977 14.25
-4.4023132 1.2500192 9.3751621 11
-4.2883863 1.3093023 9.3749971 13.444445
-4.0117817 1.2437788 9.3756132 11
-3.9659016 1.2665935 9.3889856 12.666667
5.331852 1.2688341 9.2765942 12
-4.2985997 1.5272949 9.3705397 13.4
-4.0011592 1.5638204 9.389286 12
-3.9520569 1.4825547 9.3882484 13
5.346014 1.5213904 9.2620506 14
-4.3229918 1.6756516 9.3686457 13
-4.1344047 1.6150533 9.3640862 14
-3.9581442 1.658933 9.3943186 13.333333
-4.3232975 1.9019204 9.3726625 13.75
-4.1145134 1.9028533 9.3877144 14
-3.9278038 1.824609 9.3929043 14
-4.2947369 2.0949452 9.3722715 15
-3.9289639 2.1178563 9.3918915 15
-4.3426552 2.3363957 9.38908 14
39.996178 7.2465124 9.3693886 13
3.1403489 -1.5399036 9.4465675 1
3.3503928 -1.5292367 9.5816708 0
-1.2101054 -1.2688079 9.4918556 0.5
3.2539625 -1.3369732 9.5454178 2
3.4214063 -1.3348223 9.5474596 1
5.2818131 -1.3015841 9.4980154 2.8333333
-3.5504825 -1.0670408 9.5466614 0
-1.2031783 -1.0885448 9.4329262 2
-1.1696825 -1.071743 9.4729815 0.33333334
3.2624922 -1.1061497 9.5596848 3
3.4387903 -1.1418205 9.5651875 2
5.2909427 -1.1079584 9.4703531 4
-3.5828972 -0.85110188 9.5150166 1.6666666
-1.2167971 -0.90826029 9.5990982 2.5
-1.1642504 -0.90380001 9.4705677 2.5
5.295455 -0.90861362 9.5727577 4.5
-3.5426228 -0.67488515 9.4019537 3
-1.3032827 -0.67331159 9.5780735 5
-3.6276302 -0.41200829 9.5445518 5
-3.5736914 -0.49728921 9.4618273 4.375
5.301188 -0.52929533 9.4684019 6
-3.6123073 -0.2229993 9.5039825 6.5
-3.5734482 -0.2579492 9.4384661 6.1111112
-3.5497184 -0.14473812 9.4357719 7
-4.1896577 0.10129097 9.4667187 8
-3.9793594 0.10302261 9.4821005 9
5.3109126 0.13058507 9.574132 8
-4.0203562 0.31886733 9.4558592 10
-3.9591959 0.29267505 9.4667931 9.9444447
5.2906594 0.22706442 9.5679407 8
-4.3652539 0.51879859 9.4028959 9
-4.01929 0.47436243 9.4656506 10
-3.9489303 0.48838007 9.465023 10.954545
5.3180971 0.45484561 9.583107 9
-3.9528539 0.69622779 9.4385538 11.766666
5.3209577 0.78173727 9.5877056 10
-3.9462302 0.89017797 9.4523821 12.625
5.3121166 0.90101558 9.5715275 11
-4.3422327 1.1374257 9.4098244 11
-3.9399357 1.0874234 9.4584799 13.176471
5.4106975 1.1242007 9.5430403 13
-3.9349716 1.3016596 9.4533253 13.7
5.3179731 1.2364851 9.5942268 13
8.367259 1.2056609 9.5911274 11
-4.2825427 1.4642416 9.4144392 12.666667
-3.9269457 1.4661473 9.4281588 14.166667
5.3516722 1.4778318 9.555479 14
8.4320297 1.5948982 9.5953646 12
-4.3262563 1.7232497 9.4134941 14
-3.9401824 1.6587547 9.4476261 14.2
-3.9494605 1.9142616 9.419878 14
-4.3250341 2.0619779 9.4280481 14
-4.1759839 2.1870413 9.4323635 14
-3.9348397 2.0918784 9.4339771 14
5.3106561 2.0831339 9.558588 13
-4.3162904 2.3881867 9.408412 15
-3.9383731 2.3034282 9.4401321 14.5
40.24828 2.8142898 9.4649944 10
39.535393 4.1707211 9.5189686 11
39.678864 5.6106553 9.4895554 12
3.2376227 -1.4096338 9.7560043 0
3.2042122 -1.2997223 9.7489738 1.5
5.2570806 -1.2567335 9.690321 2.8333333
-1.2632885 -1.1211666 9.7168417 1
3.2437272 -1.1760246 9.7411442 1.75
5.2735157 -1.121878 9.7733717 3.4000001
-1.2662371 -0.91021472 9.7347269 2.4166667
5.293602 -0.88946825 9.7065277 4.6666665
-3.6377478 -0.67434299 9.6144476 3
-1.2779047 -0.78374255 9.6593285 3
5.2779484 -0.72026569 9.7649994 5
-3.6200137 -0.40916127 9.646657 5
5.2962241 -0.48787972 9.7641525 6
-3.6586533 -0.27303666 9.7026482 6
-3.5272293 -0.27667493 9.7109861 6
5.297781 -0.21897283 9.7347307 7
-4.0425086 0.12622139 9.6725817 8
-3.9848328 0.1374781 9.6937971 8
5.3010411 0.096230865 9.7489138 8.166667
-3.9647799 0.31304497 9.6848297 10.5
5.2643347 0.32150483 9.7253046 9.6000004
-3.9809196 0.47071591 9.6454477 10.333333
5.3125739 0.54486912 9.716033 9.25
-3.9569385 0.70746905 9.6109753 12
-3.9732161 0.89062726 9.6635208 12.5
5.2855239 0.97902298 9.7951231 10
5.3262987 1.0595646 9.7779903 11
5.3163915 1.3730921 9.7135878 12
5.3210783 1.7188622 9.7533731 12.5
8.4419851 1.9844244 9.6020632 13
5.3280764 2.1061029 9.7257013 13.666667
5.3247252 2.3020134 9.7655811 15
5.3231096 2.5031724 9.7526779 14.5
5.3159046 2.9286575 9.7393608 15
3.1255784 -1.5657957 9.8945503 0
3.2528107 -1.4886557 9.9362202 0.60000002
5.2751889 -1.41801 9.8724575 2
8.4601183 -1.5031271 9.9821854 4
-1.4816257 -1.272182 9.981081 0
-1.3755066 -1.2251389 9.9381266 1
3.2754126 -1.3217087 9.9496908 1.5416666
3.4821358 -1.3219275 9.9966764 2
5.2635169 -1.2926044 9.8770533 2.5714285
5.5974765 -1.3440458 9.8598442 3
5.7006335 -1.2177055 9.8605509 4
6.0878391 -1.3120674 9.8846684 3.5
6.2373605 -1.3079118 9.8985367 3.3333333
6.6154819 -1.2395662 9.8847485 4
6.9639487 -1.3175539 9.9255381 4
7.0554881 -1.318392 9.9194899 4
7.2599945 -1.3422521 9.9052248 4
7.4773383 -1.383636 9.9403076 4
7.797101 -1.3495736 9.9300032 4
7.8287754 -1.3950119 9.948823 4
8.9641542 -1.2060151 9.9613028 5
9.3196249 -1.2619448 9.9917126 5
9.7689323 -1.278852 9.9575911 5
10.059242 -1.2863286 9.9699259 5
-3.6244354 -1.0597898 9.8038578 0
-1.342299 -1.123263 9.8714485 0.5
3.2888782 -1.1303724 9.9673033 2.4375
5.2703943 -1.0981485 9.8673372 3.625
5.5450387 -1.1515892 9.885973 4
5.6901231 -1.1575377 9.8760805 4
6.3563251 -1.0722947 9.8991003 4
6.7078228 -1.0330487 9.9073086 5
6.9307356 -1.0188354 9.9163532 5
7.2979088 -1.0536346 9.9489117 5
7.5349417 -1.0525273 9.9273081 5
8.283042 -1.1496686 9.9493036 5
8.7860336 -1.1830062 9.99967 5
8.8733139 -1.1897091 9.9347973 5
-1.4186488 -0.85195976 9.9022484 3
-1.3682022 -0.94397551 9.9822693 2
5.275835 -0.88446087 9.8719378 4.5454545
5.4032278 -0.8742311 9.8705769 5
5.7233477 -0.92014956 9.868124 5
6.0583906 -0.97540045 9.8887253 5
6.2544246 -0.89757752 9.9023457 5
8.0676441 -0.84393251 9.9599695 6
8.8975468 -0.85317087 9.9515667 6
9.3265362 -0.92106915 9.9926376 6
9.6181355 -0.90387988 9.9343643 6
10.008183 -0.90046358 9.9758663 6
10.88022 -0.97288299 9.9766502 6
-3.6777458 -0.68874836 9.8729372 2
-1.4532689 -0.71834558 9.8174028 4
5.273695 -0.66763186 9.8716841 5.5
5.4982529 -0.66787583 9.8622589 6
5.7154479 -0.66840643 9.8703718 6
5.9179831 -0.69966012 9.8914518 6
6.0753713 -0.71234059 9.871479 6
6.2891827 -0.70080084 9.9005747 6
6.4164534 -0.70669734 9.9090242 6
6.9636221 -0.75741827 9.9150391 6
7.4564552 -0.75469416 9.9530449 6
7.647449 -0.7789728 9.9350147 6
-3.6052189 -0.56368178 9.8939552 3.25
-3.5884686 -0.47448662 9.8119068 4.5
5.281775 -0.46497822 9.8599882 6.4736843
5.7058353 -0.43409678 9.8776093 7
6.2517152 -0.59270024 9.8988543 6
6.4806075 -0.45827872 9.9240446 7
6.6908536 -0.45576927 9.9152718 7
7.1649594 -0.43269521 9.9652176 7
7.4584379 -0.52108717 9.9474411 7
8.751915 -0.50652111 9.9649963 7
8.831953 -0.55020416 9.9658346 7
9.9351435 -0.53356987 9.9854937 7
10.514522 -0.57234782 9.9640617 7
10.79343 -0.56571734 9.9936275 7
-3.6607623 -0.29916078 9.967001 5
-3.5821829 -0.24440086 9.9014378 6.25
5.1999269 -0.3271319 9.8772593 7
5.2760925 -0.25580367 9.8627768 7.3076925
5.9165387 -0.21225867 9.8830156 8
6.3395147 -0.29977989 9.9088097 7.5
7.0176873 -0.24335192 9.9299679 8
8.2426538 -0.26085901 9.9666224 8
8.7624302 -0.2382701 9.9862518 8
5.2833481 -0.10503778 9.8664827 8.1111107
5.5783963 -0.18013343 9.8903255 8
7.1557713 -0.12800097 9.9502172 8
8.2713938 -0.1800949 9.9373465 8
9.034729 -0.1759086 9.951869 8
9.6854439 -0.17407766 9.977416 8
10.915553 -0.17489475 9.983469 8
-4.062336 0.11365917 9.9674997 8.333333
-3.9731507 0.14590725 9.9494629 9
5.2872896 0.081389964 9.8856544 8.8095236
5.7239733 0.038851663 9.8919439 9
5.9068289 0.0068660378 9.9052067 9
7.0526857 0.013326958 9.9333305 9
7.6274967 0.19174184 9.9745483 9
8.3198719 0.088678449 9.9555721 9
8.7144108 0.13965586 9.9612885 9
9.0151072 0.16481522 9.953043 9
-4.0098581 0.24257609 9.9876118 9.5
-3.977237 0.33429343 9.8560333 9
5.2867503 0.29691392 9.8822489 9.8000002
5.5491667 0.27956808 9.8977585 10
5.9947138 0.32396066 9.8992949 10
6.1695662 0.27220207 9.8957939 10
6.3045883 0.24219726 9.9144392 10
6.6345353 0.3558284 9.9191952 10
6.9699898 0.26658627 9.9290113 10
7.0155067 0.33103937 9.9143543 10
7.3455038 0.31553859 9.9434328 10
8.1873283 0.33293393 9.9650841 10
8.2405386 0.36925283 9.9710007 10
10.909484 0.22617936 9.9785461 9
-3.9690914 0.49679723 9.9581079 10.333333
5.2983141 0.5008105 9.894762 10.714286
5.9837027 0.43510953 9.9032898 11
6.0628753 0.54097533 9.9077215 11
6.717906 0.5708136 9.9106789 11
7.0353341 0.55935419 9.9396 11
7.7348299 0.55379069 9.966424 10.5
9.3166885 0.52802885 9.9562168 10
9.617857 0.52729142 9.9842701 10
-3.9890621 0.63221037 9.8474941 11
5.2854953 0.70084816 9.8918953 11.590909
5.9189258 0.74772394 9.9104347 12
6.3199635 0.699839 9.9148607 12
6.4751039 0.62269074 9.9019241 11
6.8872595 0.71532071 9.9381313 11.5
7.0509348 0.67829132 9.9191046 11
7.3925986 0.64050949 9.9189444 11
8.1297503 0.66217029 9.9666176 11
10.777184 0.61866117 9.9817457 10
5.2970886 0.90715981 9.889246 12.25
5.4039798 0.83224231 9.8773575 12
6.7554512 0.87690085 9.9244928 12
7.3648005 0.92144728 9.9232388 12
8.2740622 0.94146597 9.9725809 12
8.691184 0.9304117 9.9976006 11
9.4646425 0.85919428 9.9584064 11
9.7461348 0.92662501 9.9659729 11
9.8922691 0.91014528 9.9889174 11
12.726303 0.83871478 9.949235 10
5.3034563 1.1002995 9.8919744 13.291667
5.8570094 1.0921031 9.9087706 13
6.4755516 1.1629314 9.9274464 13
6.6749959 1.0907263 9.9187899 13
6.802887 1.1268965 9.9347477 13
7.3634772 1.1023785 9.9448757 13
7.4349327 1.0158607 9.9302244 12
8.4984093 1.0447814 9.9681883 12
10.885181 1.0298476 9.9893551 11
-3.9895082 1.300302 9.8837261 11
5.3040924 1.2953939 9.8811102 13.666667
5.7583213 1.3365493 9.9116402 14
6.2093053 1.2601029 9.9213161 14
6.7039614 1.362756 9.9287252 14
7.277318 1.3626755 9.9413052 14
7.4093943 1.215426 9.9317245 13
7.6824608 1.3585966 9.9468689 13
8.2147608 1.2254667 9.9961281 12
8.4984217 1.3623295 9.9748173 13
8.7053261 1.3159391 9.9863625 13
9.3985596 1.2045074 9.9881239 12
9.6603327 1.2414069 9.9733591 12
10.43869 1.3937974 9.9898338 12
5.311975 1.4882349 9.8941765 14
6.0657105 1.4653701 9.9229059 15
6.2246895 1.4885588 9.9022675 14
6.4694772 1.4523312 9.919838 14.333333
7.1151915 1.4958794 9.9352245 14
7.3980756 1.5046601 9.9314766 14
8.3451605 1.5894805 9.9984846 13
8.4083071 1.5827998 9.9743576 14
8.7135124 1.4407123 9.9512739 13
9.3830261 1.5575932 9.9679546 13
9.5243626 1.5784067 9.9890785 13
10.853841 1.4108413 9.9824429 12
5.3315578 1.6893232 9.8628502 14
5.9365835 1.7086065 9.9093199 15
6.2660656 1.7068822 9.9310541 15
6.521791 1.6599109 9.9241409 15
7.1710134 1.6158352 9.9414921 15
7.3056374 1.7750747 9.9390469 15
8.0292196 1.6216687 9.9582453 14
8.3730879 1.6651871 9.9646645 14
9.8130512 1.6823204 9.9702482 13
5.3223667 1.8724508 9.8593254 14
6.7458582 1.8114328 9.9388943 15
6.972508 1.9302543 9.9410267 15
7.3150082 1.907147 9.9450207 15
7.5487509 1.9904398 9.9510508 15
8.2135611 1.9793141 9.9675217 15
8.490612 1.9465697 9.9809227 15
8.7133188 1.8786775 9.9705677 14
9.4509115 1.9552169 9.9834394 14
10.775776 1.8031508 9.9923925 13
5.334549 2.0699584 9.8524075 14.333333
8.0240154 2.0705914 9.9638958 15
8.3441582 2.0281775 9.9548931 15
10.152146 2.0794353 9.9827957 14
10.372935 2.1797345 9.9932175 14
5.3262444 2.2361701 9.8129435 14
9.1599827 2.3379691 9.9851589 15
9.4619293 2.2887492 9.9943638 15
5.3148761 2.4913945 9.8699875 14
10.23244 2.4913323 9.9928913 15
5.3354163 2.7011633 9.8555145 15
3.189564 -1.5658376 10.105906 1
3.2962103 -1.474687 10.015643 0.66666669
3.4480879 -1.5061927 10.030119 1
3.2584617 -1.3268852 10.021487 1
3.4894893 -1.2883711 10.021778 1.6666666
9.4368868 -1.2398599 10.019185 5
9.7261791 -1.278187 10.015358 5
10.363817 -1.3703718 10.02337 5
10.474398 -1.3438132 10.040153 5
11.109649 -1.3909787 10.067444 5
-1.5455501 -1.1357059 10.082053 0.5
-1.3599776 -1.0330416 10.011145 1
3.2603066 -1.1162781 10.015574 2
3.4741952 -1.096628 10.042051 3
11.0306 -1.0287074 10.040314 6
12.759212 -1.0875523 10.093456 6
12.942787 -1.0730374 10.127293 6
13.427658 -1.125535 10.14068 6
-3.6754169 -0.89892673 10.120564 1
-1.6572324 -0.90013784 10.128592 1.375
-1.504508 -0.92104071 10.067405 1.8333334
9.2902775 -0.8565715 10.013287 6
9.8750162 -0.90104055 10.023908 6
10.923491 -0.97877425 10.010018 6
11.073615 -0.96981359 10.06146 6
-3.6412988 -0.72958028 10.142271 2.25
10.555435 -0.63259399 10.032667 7
12.698087 -0.62020636 10.0702 7
13.439521 -0.63687992 10.169436 7
-3.7294073 -0.40423056 10.011061 5
9.4494057 -0.58634174 10.004869 7
9.8237209 -0.52202344 10.028441 7
10.230452 -0.51237267 10.060869 7
10.936145 -0.54997981 10.047461 7
11.049899 -0.56477684 10.06511 7
12.763138 -0.58080846 10.13239 7
13.048067 -0.59301519 10.137478 7
-3.6627541 -0.2110067 10.003922 6.5
11.075 -0.25575787 10.040973 8
9.5139227 -0.1355055 10.015214 8
9.6719961 -0.15139848 10.019253 8
10.25439 -0.12989086 10.047061 8
10.891749 -0.14834128 10.045438 8
11.102011 -0.13252592 10.070349 8
12.58643 -0.15925963 10.070213 8
12.67114 -0.1293221 10.074095 8
12.878766 -0.1192271 10.124476 8
13.478632 -0.15608098 10.159603 8
-4.0268865 0.11734046 10.114161 8.3999996
9.9053059 0.11134347 10.010764 9
11.089248 0.14304134 10.039047 9
-4.0121784 0.32677644 10.076428 9.333333
-3.9926682 0.27435106 10.083978 10
10.290145 0.24854207 10.041986 9
10.921244 0.2562097 10.032475 9
11.114305 0.28926611 10.063001 9
12.566154 0.30641147 10.071532 9
12.6784 0.33990845 10.068774 9
12.879908 0.36029032 10.119364 9
13.4751 0.33114821 10.150928 9
-4.0170846 0.4794237 10.160244 10
-3.9790001 0.45756644 10.082941 11.5
9.3805609 0.43830994 10.001764 10
10.863351 0.52883041 10.038783 10
15.17176 0.44383562 10.196787 9
-3.9931717 0.61665404 10.133952 10.666667
5.2869697 0.65073633 10.001044 11
10.787313 0.65040976 10.008848 10
10.926998 0.67803097 10.054726 10
12.70157 0.78739721 10.055523 10
12.966674 0.86762822 10.130042 10
13.07254 0.84580135 10.121201 10
13.506966 0.82742596 10.143667 10
15.153991 0.99958944 10.194561 10
10.679796 1.0843228 10.044355 11
10.932797 1.0884649 10.041201 11
12.875445 1.1156632 10.096972 11
8.828166 1.3027339 10.000671 12
9.3467312 1.3292993 10.034301 12
12.458026 1.2887745 10.073126 11
12.725188 1.2693386 10.0333 11
12.85556 1.3444426 10.12102 11
13.397625 1.326599 10.107684 11
13.497639 1.3190637 10.161285 11
-3.9511189 1.495079 10.102116 15
10.916501 1.5072545 10.048976 12
15.119914 1.5678378 10.186263 11
9.3384647 1.7463198 10.014169 13
12.312798 1.7400768 10.115316 12
12.449619 1.7248403 10.087722 12
13.508503 1.7915443 10.097605 12
8.3411131 1.9404143 10.003087 14
9.5590353 1.8610954 10.007148 14
10.888963 1.9089772 10.045734 13
12.891363 1.8034768 10.122656 12
13.212578 1.8806363 10.146318 12
13.503182 1.8240319 10.137444 12
-3.9505041 2.0546608 10.129729 14.5
8.864378 2.0377471 10.023514 14
9.4890432 2.0496991 10.019806 14
10.939395 2.0047607 10.075873 13
12.372158 2.1591806 10.093082 13
12.455652 2.1594019 10.039454 13
8.3260012 2.2930393 10.014004 15
9.8698711 2.230834 10.04329 14
10.77342 2.2058408 10.02272 14
10.891762 2.358892 10.05386 14
12.293936 2.2089763 10.117599 13
12.656448 2.2732043 10.118662 13
13.519913 2.3146191 10.147157 13
-3.9354942 2.4993534 10.073889 15
8.9486942 2.4309847 10.018561 15
10.925538 2.4366152 10.083728 14
13.649828 2.4264727 10.179322 13
9.9419622 2.6530361 10.051146 15
10.731381 2.6058307 10.025816 15
10.841892 2.7478361 10.040181 15
12.308262 2.6564815 10.109752 14
12.428111 2.6901886 10.096938 14
13.463254 2.7853725 10.130211 14
10.907155 2.8439009 10.078934 15
12.959088 2.8072438 10.14109 14
13.507353 2.903899 10.184663 14
13.617287 2.9791925 10.161244 14
12.139849 3.0210812 10.034939 15
12.283632 3.1342878 10.113068 15
12.404648 3.1215556 10.05917 15
12.423561 3.2273414 10.137101 15
13.086987 3.3645525 10.157646 15
13.231613 3.3813739 10.151282 15
13.510558 3.3512282 10.071269 15
13.597992 3.5068305 10.169333 15
13.613235 3.4229584 10.14026 15
13.495325 -1.1280437 10.251375 6
-3.6855335 -0.87527716 10.338909 1.25
-3.6534789 -0.69006133 10.334251 2.875
-3.598022 -0.63772178 10.258609 3
13.524441 -0.6408577 10.249697 7
-3.6757462 -0.48157319 10.366209 4.5
13.516839 -0.59939706 10.27623 7
-3.6528778 -0.31902534 10.307238 5.6999998
-3.6316123 -0.15128946 10.370317 7
13.548862 -0.11679435 10.257422 8
-4.0217419 0.16797423 10.307901 8.5
-4.0207229 0.29918927 10.31035 9.25
-3.9669967 0.31597745 10.261442 10.5
13.54603 0.36635876 10.241804 9
-4.0129452 0.50763613 10.348744 10.666667
-3.9850073 0.47862828 10.260684 11
13.557482 0.40360373 10.281757 9
15.023296 0.46045107 10.200527 9
17.995298 0.5605225 10.289383 9
18.257776 0.5948149 10.305681 9
-4.035018 0.69891775 10.352365 11
-4.0099068 0.87913901 10.340178 11
13.568854 0.87641239 10.255508 10
13.615531 0.90495193 10.28643 10
15.019163 1.0132957 10.203402 10
17.728027 1.192645 10.275866 10
13.596284 1.3896458 10.258196 11
18.250702 1.2563323 10.297971 10
13.564837 1.4100714 10.263552 11
13.528895 1.8450269 10.224345 12
13.61359 1.9123931 10.237862 12
18.204597 1.8914582 10.294871 11
-3.9910164 2.0692444 10.248131 13
15.018807 2.1291747 10.203742 12
13.522068 2.3549211 10.220808 13
-3.9511001 2.4716458 10.350744 15
13.573916 2.4407568 10.280045 13
13.612282 2.4386101 10.220373 13
15.024504 2.6959064 10.203474 13
18.674553 2.6269803 10.321386 12
13.517067 2.8710284 10.219278 14
15.00317 3.2640836 10.211441 14
-3.6785972 -1.0354922 10.497867 0
-3.6688275 -0.86862338 10.536673 1.5
-3.6779585 -0.72601306 10.513325 2.5
-3.6469519 -0.51225358 10.555021 4.375
-3.6221511 -0.32396993 10.548125 5.6666665
-3.656234 -0.14601532 10.50262 7
-4.1087966 0.067504764 10.478638 8
-3.9970326 0.11974709 10.569218 8
-4.0142612 0.3675428 10.501965 9.5
-3.9822216 1.4055706 10.442611 12
-4.00459 1.727686 10.486042 12
-3.9598496 2.4025226 10.535478 14
-3.6317689 -1.0345944 10.626749 0
-1.4468503 -1.1012189 10.717492 0
-1.3659959 -1.0371534 10.781625 3.5
-3.6297483 -0.93592805 10.634231 0.83333331
-2.6423898 -0.9211998 10.709535 0.5
-2.4606423 -0.84258527 10.690386 0.5
-2.2591443 -0.83560914 10.698311 0.5
-2.0309539 -0.93126178 10.610129 0
-1.7413222 -0.82687235 10.708538 2
-1.4187238 -0.87720525 10.782557 4
-3.6384642 -0.75694156 10.680782 2.8333333
-2.6986358 -0.70947552 10.780568 2.1666667
-2.472425 -0.67743039 10.705147 2.5
-2.3160427 -0.67892933 10.69633 1.2142857
-2.154382 -0.66714197 10.724572 1.75
-1.9289749 -0.72310591 10.725318 0.80000001
-1.7067751 -0.67085671 10.750937 2.4000001
-3.6365004 -0.52556002 10.721835 4.1666665
-2.5003624 -0.4895944 10.743316 3.75
-2.2862134 -0.50063366 10.723654 3.5
-2.1099296 -0.46937421 10.733092 3.8333333
-1.9105603 -0.5057649 10.722577 2.0833333
-1.7142904 -0.53108346 10.752891 2.3125
-3.6216183 -0.27641317 10.600589 6
-2.043206 -0.36232552 10.773467 5
-4.0934067 -0.11407469 10.73122 7
-3.6101189 -0.10981078 10.660692 7
-4.0509286 0.14509809 10.699373 8.5
-4.0224953 0.36192626 10.70355 10
-3.9771233 0.28309366 10.671913 10
-4.0276127 0.43460298 10.776146 11
-4.0268645 0.68480897 10.71129 10.5
-3.9772947 1.1888047 10.609617 14
-4.0166445 1.3633176 10.630823 11
-3.9698582 2.1560626 10.666324 15
-3.7793236 -1.0616754 10.872362 0.25
-1.4246935 -1.1269379 10.816861 3
-1.2885009 -1.1011415 10.968132 1.5
-3.8352902 -0.83834642 10.897579 2
-3.764909 -0.92070597 10.858437 1.1666666
-1.2940565 -0.89057761 10.888935 1.75
-3.8322403 -0.68841976 10.997483 3
-3.6551731 -0.602552 10.804678 3.5
-1.407799 -0.64090484 10.857679 5
-1.3352897 -0.68850023 10.917897 2.7142856
-3.6703761 -0.44178718 10.88218 4.75
-2.7218246 -0.58131599 10.812668 3
-1.8330958 -0.49153242 10.817766 1.5
-1.7032659 -0.40037543 10.869261 5
-1.4772471 -0.48447719 10.915458 4.1666665
-1.3543274 -0.55538917 10.923751 3.8
-3.6337872 -0.25717682 10.86676 6.1666665
-1.888083 -0.35942701 10.807377 5
-1.7358487 -0.36600563 10.857185 4
-1.4580669 -0.39329481 10.973306 4
-1.3731254 -0.37127128 10.992766 6
-4.200767 -0.15131994 10.858088 7
-4.1468763 -0.075977728 10.898433 7.5
-3.6202741 -0.14334232 10.903584 7
-3.5991709 -0.11945266 10.899623 7
-4.2109685 0.012293667 10.87375 8
-4.0899878 0.072650895 10.913045 8
-4.035737 0.31013364 10.802335 10
-4.0224385 0.47212085 10.8866 10.666667
-3.9582317 0.45969993 10.835555 11
-4.0198889 0.67459893 10.845205 10
-3.9945917 0.64827287 10.902137 10
-3.9902191 1.2806823 10.859788 11
-3.9639461 2.2387576 10.859901 14
-3.9663398 2.4716556 10.838963 15
-1.285696 -1.5511043 11.096746 0
-1.2788296 -1.3144484 11.156933 2.75
-3.8031206 -1.1972004 11.153492 0
-1.2378865 -1.1251459 11.013941 0.5
-1.1741335 -1.0271834 11.10363 3
-3.8147848 -0.90109789 11.185164 1.75
-3.7918963 -0.96731257 11.173152 1
-1.2000201 -0.81983829 11.179808 0.5
-1.1793783 -0.90902346 11.14199 2.2142856
-1.2405415 -0.70457572 11.072388 2.25
-1.4058027 -0.42347655 11.042153 2.8888891
-1.3062091 -0.49380383 11.089829 3.75
-1.874446 -0.24565944 11.10854 6
-1.7364045 -0.2494186 11.133657 5.5
-1.4055316 -0.36187911 11.178421 1.5
-1.3719649 -0.36449301 11.05931 4.3333335
-4.1014323 -0.084076591 11.078348 7.4000001
-3.6748528 -0.1604186 11.027816 7
-1.9210068 -0.12698671 11.091959 7.1333337
-1.736932 -0.13550672 11.170143 6.9583335
-4.0859966 0.068477757 11.099416 8
-4.0338259 0.35619557 11.054057 9.5
-4.0030565 1.6380377 11.18641 12
-3.8224778 -1.2302897 11.364782 0
-1.173874 -1.3757319 11.266205 1
-3.8429418 -1.0747359 11.37729 1
-1.1535196 -1.1696036 11.218338 1
-1.2250139 -0.99577028 11.210547 4
-3.6558371 -0.72760653 11.283834 3.1666667
-1.2241075 -0.64371383 11.298786 1.875
-1.1750883 -0.72927999 11.243839 3.1666667
-3.6624134 -0.49976149 11.30476 4.625
-1.2573153 -0.52818441 11.293569 1.5041666
-3.6599929 -0.35060284 11.34073 5.5
-1.4294394 -0.23315449 11.281312 5
-1.3756326 -0.29334989 11.293432 4.7142859
-3.6711464 -0.14139979 11.376863 7
-1.6985335 -0.1195017 11.234315 7.25
-1.4974122 -0.13347162 11.328734 6.9722223
-4.0799875 0.071730182 11.27536 8.1111107
-4.0648189 0.29747519 11.280098 9
-3.9959009 0.2591517 11.303208 10
-4.0472107 0.51205873 11.267215 11
-4.0232134 0.98664469 11.336613 12
-3.9964597 1.4851716 11.331831 14.5
-4.0296502 2.3153973 11.285391 13
-3.9812975 2.3001764 11.258758 15
-3.9824822 2.4339962 11.275875 15
-1.1744989 -0.82063603 11.495745 0
-1.2007055 -0.63616383 11.5641 0
-1.1842949 -0.69792056 11.484459 1
-1.2760905 -0.49239585 11.473262 1.4583334
-1.3641163 -0.26967794 11.504142 6
-1.4304785 -0.14294942 11.542859 6.9666667
-1.3962919 -0.17217305 11.418881 8
-4.0632725 0.10786679 11.50273 8.333333
-4.0599308 0.29466581 11.491703 10
-4.0399985 0.76123953 11.535605 10.5
-4.0140352 1.2576312 11.475749 11.333333
-3.9995124 1.5598547 11.552176 13
-4.0064197 1.9141798 11.491772 13
-3.9709659 1.8383197 11.497288 14
-3.9894273 2.2127681 11.530809 13
-1.1392283 -0.83960527 11.787376 0
-1.2130716 -0.63451689 11.733196 0.69999999
-1.1663889 -0.72417927 11.717687 1.5
-3.7091961 -0.46435237 11.628202 5
-1.2609618 -0.51586568 11.693908 1.89
-1.4640871 -0.2821385 11.635952 6.5
-1.3643712 -0.29676703 11.75826 4.7222223
-1.4345028 -0.13388446 11.697652 8.25
-4.0599117 0.13360818 11.707701 8.4444447
-4.0376282 0.30662999 11.718486 9.666667
-4.0570397 0.49520421 11.701777 9.666667
-4.0189962 0.71613383 11.715321 10
-4.0089746 0.99481297 11.634197 11
-4.051012 1.0580969 11.73249 11
-3.9650195 2.1734743 11.662502 15
-4.0418439 2.3345425 11.664278 13
-3.9941509 2.4905424 11.654797 14
41.667446 4.4361401 11.782043 11
-1.2468156 -0.87598926 11.965813 1
-1.1624728 -0.92641419 11.906128 0.5
-1.2207303 -0.70731151 11.90411 2
-1.1900278 -0.68844032 11.807175 1
-1.2686307 -0.51567066 11.894857 1.9
-1.1774445 -0.54995358 11.881878 3.5
-1.4366617 -0.27053684 11.90098 5.125
-1.363803 -0.30610198 11.8831 4.181818
-1.4397088 -0.10661852 11.878215 7.4333329
-1.3889221 -0.16720349 11.872056 8.25
11.857926 -0.020386793 11.950986 8
-4.0739031 0.11357713 11.924026 8
-4.0303497 0.42273426 11.926051 10
-4.0587873 0.83595741 11.918907 11
-3.9938817 0.89683497 11.914757 14
-4.0379357 1.3126024 11.922337 13
