# .PCD v0.7 - Point Cloud Data file format
VERSION 0.7
FIELDS x y z intensity
SIZE 4 4 4 4
TYPE F F F F
COUNT 1 1 1 1
WIDTH 1314
HEIGHT 1
VIEWPOINT 0 0 0 1 0 0 0
POINTS 1314
DATA ascii
-3.0655859 1.5049441 -0.92918372 12.518518
-2.9585114 1.4411961 -0.92365521 12.666667
-3.2110314 1.7153237 -0.94678587 13.181818
-3.0579321 1.6775154 -0.92486852 12.875
-2.9407439 1.7095604 -0.90315372 12.8
-3.2648835 1.8104227 -0.94977188 12
-3.0687222 1.8551706 -0.90806562 12.8
-2.9222932 1.8453681 -0.86522788 13.2
-2.7795823 1.90597 -0.83619595 11
-2.4528184 1.8937523 -0.85040951 11
-2.0602157 1.8099123 -0.85538673 11
-3.2402954 2.1359706 -0.8463974 11
-3.0032151 2.1680918 -0.8435955 12
-2.3856187 2.0581441 -0.99734974 11
-2.0781565 2.04 -0.97823238 11
-3.045187 2.3445351 -0.9197998 12
-2.9236617 2.3349109 -0.95181274 15
-3.0417473 2.6525385 -0.84341431 12
-3.1127939 2.8794417 -0.8689599 13
-3.0041625 3.0302975 -0.97505569 13
-2.9886425 3.0894606 -0.98921776 15
-3.2288537 3.2178237 -0.81859016 13
-3.1261482 3.3364339 -0.87145233 14
-3.0089316 3.5868278 -0.85755253 14
-3.2125263 3.7275898 -0.98738956 14
-3.1165569 3.816298 -0.88137817 15
-3.0001547 4.103662 -0.96950531 15
-2.9746122 4.1031651 -0.89381218 15
-2.34147 -1.2176574 -0.78074282 0
3.9158599 -1.2385799 -0.65250391 1
4.0784535 -1.267014 -0.68118316 3
4.3146801 -1.2106551 -0.73497963 3
-2.5011022 -1.1107652 -0.77435184 1.5
3.9677157 -1.1048536 -0.67727709 1.8
4.0262852 -1.1381499 -0.70703948 1.4
-3.0593576 -0.9119494 -0.73996925 3
-2.954217 -0.85121518 -0.73853207 4
-2.6208956 -0.82243884 -0.78070831 4
-2.5058966 -0.87918425 -0.79307586 2
3.9819021 -0.95571971 -0.72991848 2.5
4.0495763 -0.90797454 -0.67428643 2.8499999
-3.0478616 -0.73741901 -0.7371977 3.2142856
-2.9895902 -0.60877389 -0.72428656 5
-2.5151904 -0.68991411 -0.77831328 3.5
3.9204769 -0.67952085 -0.69919991 4
4.03478 -0.70008004 -0.70915067 2.6500001
-3.2879248 -0.48599541 -0.6917963 6
-3.0529385 -0.48469681 -0.68176085 5.3333335
-2.9987271 -0.56767368 -0.71208429 5
3.9066019 -0.40311328 -0.78226376 5
4.050777 -0.50776809 -0.68880486 4
-3.0529957 -0.32526281 -0.66918498 6
-2.9362369 -0.35591775 -0.66570282 6
4.0493426 -0.37224862 -0.79606748 6
-3.1359625 -0.084680229 -0.6141243 7
-3.2756896 0.040616915 -0.65540409 7
-2.9320209 0.066577181 -0.66404533 8
-3.073909 0.21568382 -0.7224555 9
-3.2602782 1.0991116 -0.62619877 9
-3.0347605 1.1242176 -0.75344658 10
-2.9552467 1.1896102 -0.79406452 11
-3.0271084 1.2720616 -0.62519741 11
-2.9820116 1.253639 -0.79717636 11
-3.0373428 1.5286154 -0.73526192 12.666667
-2.9274621 1.5060441 -0.6981585 12
-3.0178752 1.7363646 -0.72208071 13.5
-2.9140606 1.7138252 -0.67870951 12.333333
-3.037009 1.8898737 -0.74825615 12.142858
-2.8963308 1.8837742 -0.70758122 13
-2.7170794 1.895134 -0.68301231 11.333333
-2.5930269 1.9754242 -0.66425991 12
-2.2070501 1.9987102 -0.73525715 12
-2.075793 1.9991186 -0.69140625 11
-1.9132178 1.8696234 -0.73682928 11
-3.0612898 2.1144791 -0.71640182 12.5
-2.9311416 2.0682881 -0.71076268 13.133333
-2.7118118 2.0574601 -0.70165694 12.8
-2.4884763 2.0518513 -0.73381424 12
-2.2928817 2.0661592 -0.71202594 13.333333
-2.1698782 2.0794594 -0.72328663 13
-1.8855531 2.0066538 -0.66612053 11
-3.025959 2.2893395 -0.66129571 14
-2.9832416 2.2722657 -0.68082654 13.5
-3.0762057 2.5042031 -0.6931324 13
-2.9714613 2.4808133 -0.65623081 14
-3.2497492 2.6783874 -0.74817371 12
-3.0584087 2.6985517 -0.66867828 13.5
-2.9499235 2.6587052 -0.6732111 14
-3.1071153 2.8397934 -0.64890623 14
-2.9642849 2.8745284 -0.63781643 14.4
-3.0276222 3.0485141 -0.67902786 13.333333
-2.9824853 3.0819573 -0.65501022 14
-3.2435255 3.2238426 -0.69699192 13
-3.0416541 3.2072368 -0.68731594 15
-2.9740815 3.2978728 -0.67027807 14.5
-3.0583503 3.4206727 -0.66051739 14.666667
-2.9387255 3.4536779 -0.68122101 15
-3.2242658 3.7664049 -0.70349979 14
-3.0095313 3.739783 -0.73648739 14
-2.9707577 3.6713009 -0.6203146 15
-3.0478411 3.9157116 -0.67530489 15
-2.9591854 3.8027985 -0.76315594 15
3.9024429 -1.4260612 -0.5601474 0.5
4.0564699 -1.4276556 -0.56024981 1
3.9731972 -1.344848 -0.54148436 0.5
4.0448408 -1.266747 -0.52681506 1.2
-3.0425625 -1.0416528 -0.41126931 2
3.9851162 -1.101025 -0.53959996 1.3333334
4.0550528 -1.0585573 -0.49299359 2
-3.0468259 -0.91990244 -0.45418921 2.2
3.978451 -0.87190223 -0.40924919 2.25
4.0269151 -0.8673566 -0.54394186 0.89999998
-3.058218 -0.67384464 -0.52504051 4.1428571
3.9876511 -0.70965314 -0.51728934 3.75
4.048347 -0.66312963 -0.49245572 1.6666666
-3.2048898 -0.44549638 -0.4105463 5
-3.0965202 -0.52097321 -0.49558294 5.375
-2.935863 -0.59235811 -0.54630423 5
3.9774427 -0.41260648 -0.4381361 5
4.0492024 -0.49800649 -0.51477319 4.2777777
5.5773077 -0.40897003 -0.48019409 5
-3.0728054 -0.35279608 -0.5481925 5.5
4.1408782 -0.32000387 -0.47583741 4
4.2016191 -0.28436747 -0.53582227 3.5
5.58008 -0.28591791 -0.49905279 5.8333335
5.6186552 -0.29326728 -0.5156486 5.75
-2.9757075 -0.060951248 -0.41644192 7
4.2894025 -0.13224275 -0.50486737 6.1666665
5.5712976 -0.068113133 -0.50984228 7.7333326
5.6056609 -0.13558604 -0.50775766 7
-3.1303482 0.057149339 -0.44626713 7
-2.9069362 0.38519973 -0.44142914 8
-3.257566 0.56945479 -0.53453064 8
-3.0143309 0.49281731 -0.40086269 8
-3.0102701 0.78390622 -0.57049847 9
-2.9770596 0.77492291 -0.40637684 10
-3.2433126 1.1389508 -0.47008276 9
-3.0721409 1.0455798 -0.49676681 9.25
-3.0021131 1.3574172 -0.53117275 12
-3.0912426 1.5090011 -0.46296087 10.333333
-2.9985797 1.4773802 -0.50691128 11
-3.2028112 1.6856096 -0.47618198 10
-3.0456789 1.6869532 -0.46778011 12
-3.0661225 1.8540878 -0.52860451 11
-2.9158342 1.8366715 -0.51959276 12.5
-2.7111614 1.8012685 -0.42987537 12
-2.1049702 1.8045174 -0.4318943 12
-2.8731837 2.1206379 -0.54607391 11.5
-3.0762691 2.3576443 -0.56709862 12
-2.964952 2.2362175 -0.57532644 13.5
-3.0526025 2.5182481 -0.5587061 13
-2.9652238 2.4914742 -0.57359457 13.5
-3.0398538 2.6082008 -0.51947594 12
-2.9258366 2.7136469 -0.5008958 13.666667
-3.0505435 2.9022193 -0.57194346 14
-2.9351068 3.0951724 -0.5460515 14
-3.0290039 3.3100698 -0.51798153 13.666667
-2.8900483 3.2385888 -0.57255745 14
-3.0346951 3.4476495 -0.5010848 14
-2.9850402 3.5643497 -0.4823885 14
-3.0262356 3.7253633 -0.53552723 14.5
-2.9714575 3.6250815 -0.57516098 14.5
-3.008189 3.8980927 -0.52403021 15
-2.9645364 4.0649118 -0.54193497 15
4.0574541 -1.461506 -0.32568276 0.5
3.9975905 -1.266169 -0.25043941 0
4.0708079 -1.3055515 -0.26357621 1
13.794448 -1.2496307 -0.3013562 5
4.0746279 -1.0828831 -0.2979064 1.5
-3.2024209 -0.85054219 -0.20557976 2
-3.0990632 -0.87054068 -0.2754668 2
-2.9692504 -0.86019713 -0.28779972 2.6666667
4.059401 -0.88629109 -0.28648314 2.5
-3.2200124 -0.69889265 -0.22113013 2
-3.0990317 -0.72023094 -0.26420951 3.3571429
3.9713757 -0.62752765 -0.32143268 4
4.0286608 -0.66748875 -0.30177364 1.8333334
13.746904 -0.76082647 -0.39423919 6
-3.2172594 -0.51817125 -0.22941291 3.5
-3.0760174 -0.51422459 -0.27186978 5
-2.9595616 -0.51312637 -0.27835923 6
3.9401877 -0.4900724 -0.23461294 4
4.0666723 -0.48125198 -0.26649222 3.875
-3.212532 -0.33103469 -0.22258408 5
-3.0777988 -0.30335736 -0.25495556 6.1481481
-2.9544954 -0.33543727 -0.31352639 6
4.1377234 -0.33617929 -0.25628132 4.5
12.869663 -0.22835946 -0.26998544 7
13.693293 -0.27518326 -0.38826239 7
-3.2005086 -0.075719148 -0.21988773 7
-3.073339 -0.1121738 -0.26069811 6.8666668
-2.9641736 -0.08554282 -0.26730576 7.4000001
-3.0839186 0.10126263 -0.2417464 7.9310346
-2.9187603 0.073607981 -0.22397566 7.5
-3.0749099 0.325766 -0.25934908 8.8703699
-2.9747961 0.33484057 -0.24684246 8.666667
-3.0720541 0.50782889 -0.25177234 9.7311831
-3.0705519 0.68748116 -0.23420703 11.13492
-2.9370966 0.65786433 -0.26667345 9.5
-3.0870547 0.86826551 -0.24383524 11.420291
-2.9487123 0.90408325 -0.29290497 10.25
-3.0596206 1.0893644 -0.26423138 11
-2.9302146 1.1377872 -0.28650984 10
-3.0504115 1.2692947 -0.2401385 11.7
-2.9505217 1.2696261 -0.25513172 11.333333
-3.0594821 1.4967771 -0.24967824 11.333333
-2.9536574 1.5254626 -0.29449868 11
-3.265485 1.652402 -0.37649155 10
-3.0290964 1.7459555 -0.32040262 12.666667
-2.9435697 1.713136 -0.31994343 12.625
-2.6073699 1.797627 -0.33820009 14
-3.0131698 1.874311 -0.33253765 13
-2.8594105 1.8149809 -0.28045812 13.333333
-2.4415874 1.850149 -0.26954651 13
-2.9603932 2.1814208 -0.36820507 13
-3.0213051 2.2331595 -0.26946545 13
-3.0065312 2.6616449 -0.33139086 13
-3.0482254 2.9901032 -0.39695549 13
-2.829011 3.7017817 -0.34676838 15
-3.0230236 4.0077429 -0.39756393 15
3.9650211 -1.4014679 -0.15129137 0
4.0461545 -1.4645743 -0.060429573 1
3.9734609 -1.3421389 -0.11587721 0.5
4.0761361 -1.3173463 -0.052711636 0.875
3.9024804 -1.1069256 -0.15852372 0.66666669
4.0419669 -1.105775 -0.084694654 1.5
-3.2058835 -0.87530088 -0.14525008 2.5
-3.0906622 -0.88747638 -0.11358753 3.3636363
-2.9301119 -0.95501703 -0.16028118 2
3.9531713 -0.89444572 -0.10837828 1.5714285
4.0607457 -0.91605723 -0.10462672 2.1764705
-3.2162209 -0.74594343 -0.17245364 4.5
-3.131762 -0.72593498 -0.13278921 3.3055556
3.9639626 -0.71516186 -0.10741222 3.0833333
4.0585093 -0.68348444 -0.11458135 3.75
-3.2067192 -0.55366576 -0.14126924 4
-3.1169481 -0.51746112 -0.14522679 4.9523811
3.9864464 -0.49578434 -0.098061562 4
4.0882673 -0.45735002 -0.13735624 5
-3.2192888 -0.32833359 -0.16652581 5.5
-3.1151285 -0.31251121 -0.13256273 5.6199999
-2.9274821 -0.37342674 -0.13935089 6
4.1597228 -0.30457181 -0.091179103 5.25
4.2303896 -0.2754887 -0.051320482 4
5.559824 -0.21842316 -0.002351284 6.5
-3.2077532 -0.17549549 -0.18905306 7
-3.0999706 -0.11064911 -0.13729493 6.7068968
4.2841606 -0.10039352 -0.032159965 6.8888888
-3.2100129 0.011779815 -0.11665344 8
-3.1038654 0.10776503 -0.1366034 7.8125
-2.9206557 0.096755877 -0.16189384 8
4.3078561 0.036129817 -0.074978232 8
-3.0863795 0.31290472 -0.15106101 8.8653851
-2.9972851 0.32517296 -0.15278625 9
-3.0983541 0.52361888 -0.13858129 9.7413797
-3.0871651 0.70839113 -0.13594176 10.666667
-2.9626458 0.6800881 -0.16173279 9.666667
-3.0766988 0.90953898 -0.13872744 11.625
-2.9687603 0.86120069 -0.15886231 9.6000004
-3.0963471 1.1001285 -0.13179721 11.924242
-2.9512637 1.1073208 -0.14897089 10.6
-3.0771644 1.2805707 -0.13306312 12.714286
-2.9553442 1.3232713 -0.14563046 11.333333
-3.0940955 1.4601268 -0.10854041 13.045455
-2.9552388 1.5991949 -0.0089330673 14
-3.0167849 1.7134544 -0.13739331 12.833333
-2.897531 1.7388412 -0.1327728 13
-3.0297372 1.8006731 -0.065541267 14
-2.7646904 1.8655646 -0.16132164 13
-3.004297 2.2745354 -0.14813042 13
-2.9857988 2.2952714 -0.13777351 12
-2.9883938 2.7708306 -0.14120483 14
-2.9850409 3.2553637 -0.12396717 15
4.0458546 -1.2435751 0.025414944 1
7.4434452 -1.3992341 0.096487284 1
3.9777429 -1.13279 0.07061211 0.66666669
4.0326281 -1.1310561 0.047075838 1.625
7.4571047 -1.1999187 0.1027863 2
-3.1330643 -0.90253389 0.14622028 3.4000001
-2.96931 -0.96564198 0.17854878 2
3.9321063 -0.86977971 0.060150504 1.5
4.0382643 -0.86704838 0.091935329 1.5625
-3.1691396 -0.71481723 0.094537467 4.75
3.9525995 -0.70443165 0.00018453598 2
4.0534306 -0.70585805 0.10287557 2.25
-3.148176 -0.51707357 0.12436453 6.6666665
3.9579515 -0.5485388 0.038443089 4
4.1408129 -0.47137508 0.12409072 4.1999998
4.1785917 -0.28147969 0.061385833 4.625
4.2268329 -0.26799786 0.084424481 4.8888888
-3.1492262 -0.13993569 0.021493435 7
4.2807446 -0.12086084 0.098025799 6.8000002
-3.1530833 0.039944053 0.051843069 8
4.2972903 0.032466847 0.035166502 8
-3.1412902 0.33282399 0.096545219 9
-3.1506398 0.47073478 0.083276749 9
-3.1387928 0.75580072 0.060228985 10
-3.1377404 0.87945402 0.029710293 11
-3.0809689 1.1427759 0.093574345 12.333333
-3.1415977 1.2684622 0.016843259 12.25
-3.0916202 1.5086948 0.086302213 12.571428
-2.9147701 1.4835135 0.076726913 14
-3.0151784 1.738867 0.033171654 14
-2.9811711 1.6964858 0.12499541 15
-2.6226237 1.7407982 0.039125443 12
-2.5535178 1.7670534 0.01131916 13
-1.9555757 1.7729521 0.045862198 15
-3.0371094 1.873318 0.12083101 11.5
-1.94839 1.8055686 0.0082159042 11
-2.937362 2.7238801 0.16401768 14
7.4098473 -1.5893188 0.28926158 0
7.6294641 -1.4300843 0.3479414 1
7.5718441 -1.2147558 0.32423258 2
4.0753088 -1.1119632 0.31091267 1.25
-3.1106415 -0.91372615 0.33792442 2.7777777
4.0490336 -0.90272444 0.32750663 1
5.373888 -0.83927828 0.37559271 2
-3.1622949 -0.73192704 0.31602713 3.5
4.0552783 -0.6789543 0.32331589 2.4166667
5.2360721 -0.78537935 0.38398933 2
5.5311356 -0.69940037 0.38160241 3
-3.1342196 -0.56936193 0.2604776 5.25
4.1205502 -0.50010973 0.31707188 2.3611112
4.2934732 -0.51210386 0.39679325 1
5.5434747 -0.55138099 0.37141585 4
-3.0538139 -0.34431902 0.24947977 6
4.1453223 -0.33277091 0.27724645 4.625
4.2574625 -0.28250325 0.32592148 5
4.2785912 -0.15912613 0.26677519 6.5500002
-3.1482737 0.21028683 0.39155912 8
-3.1175001 0.53045338 0.20712566 9
-3.1522782 0.86900711 0.2844134 11
-3.1328888 1.1489134 0.20971966 13
-3.1249957 1.3240204 0.26123142 15
-3.0808227 1.4539882 0.30478477 13
-2.9147809 1.7225631 0.34914431 13.666667
-2.7443256 1.7709309 0.26621628 13
-2.8553669 1.8150935 0.28942299 15
-2.7662697 1.9363265 0.27193356 11
4.1378055 -1.1033268 0.51281095 1.2727273
4.2946081 -1.100659 0.5585649 1.25
4.7026501 -1.0140725 0.48992717 0
4.9029045 -1.1429271 0.59577751 2
5.0610213 -1.0738922 0.49907708 0
5.2905474 -1.0651348 0.46780682 0
-3.1362422 -0.87747049 0.48598814 2.6666667
-2.9705775 -0.95724875 0.53845501 2
4.1032696 -0.88302004 0.47373772 1.4545455
4.303576 -0.9268201 0.5507018 1.4166666
4.4634562 -0.81542802 0.51362991 3
4.6154728 -0.80948788 0.45600939 2
4.8528872 -0.88574582 0.49229535 1.3333334
5.0716147 -0.88351643 0.46439195 1
5.2071896 -0.95240796 0.48960733 1
5.4705315 -0.87601364 0.45907396 1.4
-3.1538177 -0.73280346 0.49786991 4.1999998
4.1576691 -0.7030983 0.47758299 2.5625
4.2829943 -0.75151694 0.49482241 2.1875
4.5078259 -0.69642514 0.55562913 3.3333333
4.6225858 -0.6652289 0.52543902 3.5
4.9090466 -0.69367659 0.50790924 2.3
5.1099863 -0.66671014 0.51317352 3.5999999
5.2849393 -0.69697618 0.47971886 2.3571429
5.6059027 -0.74577796 0.42867875 2.5
-3.1289003 -0.53254187 0.53458232 5.5
4.1559367 -0.50951946 0.44614777 3.2777777
4.2973819 -0.50544727 0.51027423 3.5294118
4.5251198 -0.49441987 0.54536027 3.5454545
4.6764493 -0.48604301 0.49581558 3.7142856
4.9264426 -0.4978559 0.54074925 4.4285712
5.1128874 -0.54403603 0.43981522 3.625
5.2490768 -0.48657143 0.43969798 4
5.4589586 -0.52413762 0.45125341 4
-3.1158168 -0.34348783 0.50405645 6.3333335
4.2889576 -0.36136472 0.46039471 4.75
4.5196886 -0.38758907 0.50349408 4
4.9424686 -0.34579545 0.48781705 5.5
5.0932374 -0.34781486 0.43818605 5
5.2444839 -0.33343816 0.40943217 5
13.776802 -0.26740143 0.56728834 7
-3.1016505 -0.10423823 0.48967755 7
-3.1447265 0.099349923 0.49481311 8.166667
-3.1301632 0.27368057 0.41997337 9
-3.1079144 0.73995733 0.47072411 10
-3.1512685 0.83502191 0.43462372 10
-3.122021 1.0915567 0.56440258 11
-3.0480816 1.5155178 0.45820841 12.571428
-2.9464793 1.5414083 0.45271468 13
-3.0448208 1.7127992 0.49420866 11.333333
-2.9255641 1.6949537 0.5150882 12.6
-2.7616715 1.7514598 0.54938352 14.5
-2.5965197 1.7744569 0.40491438 15
-2.8363268 1.8132756 0.522053 15
-3.031848 2.3036935 0.58038044 11
-3.0122905 3.4732773 0.57855034 13
-2.9931831 4.0600624 0.53933716 14
4.5402932 -1.2460041 0.60321689 2
13.594598 -1.216681 0.62522948 5
4.3458529 -1.0325708 0.63746351 1.6666666
4.4797654 -1.0881262 0.64508653 2
4.7479115 -1.049208 0.69897008 2.5
4.8778367 -1.0180054 0.65287828 3
5.0381103 -1.1307683 0.65119052 2.5
5.3180838 -1.0137796 0.61598301 0
5.4879675 -1.0543407 0.6272738 0
-3.1199038 -0.90986711 0.70502996 2.3333333
-2.9870362 -0.96999842 0.77311587 3
4.3230038 -0.90066147 0.62767273 2.6666667
4.4384456 -0.97785246 0.64326572 3
4.7334146 -0.8775633 0.64484566 2.5
4.8889265 -0.88230753 0.63849705 2.75
5.20224 -0.98319393 0.69251919 3
-3.1319702 -0.72272331 0.67964309 4.625
4.2547464 -0.71695876 0.68802267 1.5
4.4501748 -0.6940496 0.61382812 4.1999998
4.7342415 -0.63829798 0.66317558 4
5.1306114 -0.67227304 0.61081862 5
5.299099 -0.72702193 0.65955377 4
-3.1204104 -0.55129033 0.70602155 5.5
4.3374324 -0.54401624 0.61351311 2.25
4.4267387 -0.50261277 0.62123966 5
4.6237831 -0.5158323 0.65921283 5
5.0545588 -0.44442153 0.65930367 5.5
5.3222537 -0.55875516 0.60273933 5
-3.1466026 -0.33141887 0.77623415 6.5
-3.0679982 -0.069542788 0.65760297 7
-3.1309342 0.056474164 0.68264794 7.5
-3.0442548 0.2506153 0.64282799 9
-3.1125879 0.53799278 0.78945923 8
-3.1366482 0.90088797 0.6592719 10
-3.1061568 1.1111321 0.69408822 11.25
-3.0254273 1.3782821 0.77744007 11
-3.1453006 1.4559647 0.61717415 12
-2.9476604 1.4530135 0.72837448 14
-2.666229 1.7568202 0.69365025 12.333333
-1.9270158 1.7666466 0.79836988 15
-3.025099 2.3202155 0.71437073 11
-3.0294762 2.8957257 0.67555237 12
-3.0028403 3.4710901 0.67778397 13
-2.9893453 4.0525908 0.64522934 14
11.169781 -1.0045849 0.97818553 5
-3.2077734 -0.8505438 0.82896042 5
-3.0436177 -0.9478299 0.89336979 1.5
-2.9801702 -0.96550006 0.90080214 3
5.2860146 -0.90151006 0.8699311 0
-3.1711216 -0.75498486 0.84966773 5
4.4620705 -0.69365448 0.82114601 0
4.8702207 -0.79029042 0.88079917 0
11.218832 -0.61653721 0.82582897 6
-3.2265589 -0.2433631 0.8048439 6
-3.1516061 -0.29166409 0.85965455 6.75
11.128769 -0.22231086 0.97948629 7
-3.1103621 -0.072812028 0.91048193 7.3333335
-3.2359383 0.1292402 0.83412075 7
-3.1477911 0.10682493 0.94231582 7.5
-3.1317365 0.3314532 0.94096422 9
-3.0975707 0.56293851 0.91451263 8
-3.2112119 0.87717271 0.84240246 9
-3.0852714 0.93219829 0.92090082 9
-3.0142145 1.4582995 0.91130972 12.5
-3.0474482 1.6845098 0.98023915 11.5
-2.9625802 1.7015455 0.83360314 15
-3.0895936 -0.91356313 1.0956546 2.5
-2.9608803 -0.93288225 1.1224499 3
-3.1570766 -0.71447319 1.115332 4.8571429
-3.0923419 -0.58080822 1.0923281 6
10.411347 -0.54878056 1.1079789 6
-3.1723273 -0.33651593 1.0783191 6
-3.3058457 -0.15294415 1.0998907 6
-3.0718145 -0.15564103 1.1336536 8
-3.185468 0.029925734 1.1901402 8
-3.2976534 0.61163253 1.1498537 8
-3.2948313 0.99545121 1.1442003 9
-3.1180084 0.93456721 1.1852365 11
-3.1164906 1.0866356 1.07444 9
-3.135179 1.4027144 1.1568413 11
-2.9633071 1.4846815 1.1252321 14
-3.0087247 1.7570471 1.1456022 14
-2.9157727 1.7191877 1.1264941 13.333333
-2.746747 1.7657413 1.0609319 14.5
-2.8533924 1.8090165 1.1360974 15
7.5300798 -1.2096081 1.3148836 2
7.5697546 -1.1912527 1.2426584 2
-3.1201541 -0.9151423 1.3147237 2.3333333
-3.2020664 -0.68524456 1.3890219 2.5
-3.1099439 -0.67873836 1.3226295 5
-3.2089546 -0.5936873 1.393924 4
-3.1089764 -0.51419902 1.3033403 6.6666665
-3.2066159 -0.26304778 1.3946269 6
-3.1234617 -0.29555315 1.39072 6.3333335
-3.150456 -0.097631849 1.3429978 7.5999999
-3.1196547 0.10464004 1.3807703 8.5
-3.1236429 0.30764708 1.29713 8.333333
-3.2038836 0.55689996 1.3030205 8
-3.0958257 0.46809882 1.3579574 9.5
-3.1512258 0.7031545 1.3649005 8.666667
-3.1372941 0.87459481 1.2576275 10
-2.9685583 0.8643592 1.2250376 9
-3.0644181 1.1096984 1.3175137 12.272727
-2.936316 1.1915746 1.3563986 11
-3.0687535 1.3959976 1.230464 11
-3.0194373 1.4601358 1.3553944 15
-3.0745618 1.765167 1.3200693 12
-2.6947048 1.767049 1.3869791 10.5
7.5028915 -1.4148505 1.5261912 1
7.479476 -1.2174278 1.5256774 2
-3.0900052 -0.87028247 1.5124283 2.6282048
-2.9569602 -0.94965172 1.5843065 2.4000001
1.9096909 -0.82052761 1.4695425 5
-3.2081113 -0.67633635 1.4796131 2
-3.0988343 -0.70815706 1.5246571 4.2631578
-2.9493339 -0.69382262 1.574814 4
-3.2091172 -0.47583842 1.5058022 3.3333333
-3.0865672 -0.49128786 1.519635 4.75
-2.9653854 -0.51279056 1.5104991 5.75
-3.2171457 -0.30255768 1.4983404 5
-3.0840225 -0.31807169 1.5254375 5.9268293
-2.9768124 -0.30062571 1.5632987 6
-3.2089236 -0.1629834 1.5150274 6
-3.0822973 -0.093214631 1.5209388 7.1621623
-2.9505262 -0.10015534 1.5560728 7.1999998
2.0054605 -0.10261066 1.5908432 7
-3.2137427 0.10077643 1.4889958 7.5
-3.0863476 0.097940035 1.5114444 7.9729729
-2.8781357 0.0073122084 1.5722742 7
-3.311588 0.23045483 1.4366779 7
-3.0898135 0.32157567 1.5190011 9.1829271
-2.9880147 0.34245312 1.5963883 9
-3.0878141 0.50115919 1.5279634 10.103448
-2.9262309 0.43196177 1.5685158 8.5
-3.2066159 0.64138287 1.571421 10.5
-3.0796416 0.69715244 1.51996 11.166667
-2.9500418 0.65029746 1.5335122 10.5
-3.2034299 0.92221361 1.5463362 9
-3.0820863 0.89834303 1.5321802 11.671429
-2.9573879 0.86637878 1.5302771 11.666667
-3.0949662 1.0944183 1.5335711 12.086957
-2.9476285 1.1202976 1.5391014 12
-3.1029098 1.2996577 1.5180489 11.863636
-2.9656467 1.330833 1.5531088 14
-3.2844257 1.4239933 1.5543022 10
-3.067378 1.4575198 1.526974 12.8
-2.9547248 1.4957418 1.4922376 14.5
-3.0241876 1.7710979 1.4126601 11.5
-2.9119914 1.7436372 1.4730603 11
-2.7467415 1.7319778 1.5703875 11.666667
-2.9459348 -1.0544784 1.7122551 1.2
4.4518404 -1.0942113 1.794158 2
-3.0423565 -0.88564682 1.7210929 3.375
-2.9400752 -0.8979494 1.6459885 3
-3.0692787 -0.7063095 1.6492131 4.2727275
-2.9897759 -0.62422061 1.7314062 7
-3.0816095 -0.52663761 1.6435086 4.4285712
-2.9061351 -0.535429 1.6083939 6
-3.0406244 -0.28136814 1.6423774 6.3333335
-3.0691338 -0.11294943 1.6378978 6.8000002
-2.9807849 -0.085797124 1.6619666 7
-3.1134014 0.15047769 1.6313649 7.9166665
-2.9619944 0.1110644 1.6322744 8.125
-3.0564101 0.33128798 1.6437171 9
-2.9540062 0.31391528 1.6806073 9.166667
-3.0512481 0.5155651 1.6387734 10.3125
-2.924037 0.58080894 1.7049024 9.5
-3.0528119 0.71772742 1.656136 10.611111
-2.9519606 0.71686393 1.6778498 10.916667
-3.0688043 0.88754708 1.6324588 12.045455
-2.9352164 0.88613188 1.6390326 11.6
-3.0049193 1.1061093 1.6659933 11.333333
-2.972934 1.0847851 1.670915 12.625
-3.083374 1.2801778 1.6296991 11.6
-2.957165 1.3050486 1.6660805 12.285714
-3.0400581 1.4383678 1.6372334 11
-2.9807689 1.4134854 1.623118 14
-3.0099568 1.7224344 1.6353302 12
-2.8442512 1.7533605 1.6715112 13.5
-2.6558161 1.7396231 1.7290591 12
3.65762 -1.3549542 1.9702601 1
4.240694 -1.2516348 1.832799 1
4.7791605 -1.2876647 1.9840271 0.5
-3.0468404 -1.0947199 1.8764658 1.25
-2.9435673 -1.1314441 1.8858333 1.6666666
3.4781272 -1.0527855 1.9917393 2
3.6803372 -1.0811244 1.9486721 1.2
3.8928556 -1.0147364 1.9258093 0.5
4.2902784 -1.0612062 1.8983846 3.75
4.5294032 -1.0732247 1.9593118 2
4.7739725 -1.1229494 1.9509213 1.5
-3.026336 -0.90177137 1.886475 4.3333335
-2.9830039 -0.93528652 1.8883104 3
3.5627344 -0.84408563 1.9740951 1
3.7142677 -0.89974898 1.9488951 1
3.874728 -0.88290685 1.9320871 2.6666667
4.0836196 -0.91600657 1.9204823 0.33333334
4.3206568 -0.87740695 1.8755128 2.1666667
4.5676222 -0.88131207 1.9315833 1.875
4.7659302 -0.95170081 1.922164 2.5
-3.0236211 -0.76764464 1.8607388 6
-2.9784391 -0.65918255 1.8959789 5.6666665
3.7929835 -0.76094341 1.9096746 2.75
3.8291419 -0.70707679 1.9734476 2.5
4.1071792 -0.74466789 1.91552 3.5
4.3512502 -0.72417003 1.9242204 3.3333333
4.4661627 -0.76803803 1.8648119 4
-3.0300338 -0.46356225 1.8112946 6
-3.0360663 -0.39430878 1.9694853 7
-2.9703655 -0.24443731 1.8138027 6
-3.0482295 -0.0021660812 1.9842348 8
-2.95645 0.16853061 1.9270792 7
-3.1716933 0.23085132 1.8601084 7
-3.0105631 1.1308808 1.8124847 12
-2.8506513 1.2316073 1.8097401 10
-2.9357979 1.7477175 1.8702321 12
-2.3740222 1.7602926 1.8555822 12
-2.1669984 1.7968779 1.8673134 11
-1.956841 1.7363772 1.906682 11
3.5666308 -1.3671992 2.0444593 1
3.6534555 -1.2578739 2.04059 1.6666666
3.8887444 -1.2555976 2.0229688 2
4.5492973 -1.2554036 2.0141354 2
4.7245851 -1.2797742 2.0442524 2
-3.0421562 -1.0584 2.086067 2
-2.8708701 -1.1717075 2.1550281 0
3.3694098 -1.0765576 2.1371686 2.8333333
3.4585438 -1.1092051 2.1425459 2.6666667
3.6265407 -1.1133704 2.0849242 3.5
3.8974848 -1.195664 2.1565886 3
4.711628 -1.0758268 2.0155139 3
-3.0300393 -0.8697542 2.1038132 4.5
-2.9801118 -0.87286866 2.1013796 3.5
3.3957849 -0.90263605 2.1568584 1
3.5018189 -0.89105272 2.0957162 2.3333333
3.6854615 -0.87086093 2.0412691 3.0714285
3.8263149 -0.88406199 2.0958738 4
4.5363607 -0.94512832 2.1181426 5
4.6870456 -0.88848579 2.0728755 4
-3.0504258 -0.77925491 2.1937127 5
3.4999774 -0.70572746 2.1803861 3.5
3.7094476 -0.68913245 2.1061258 3.6111112
3.8764696 -0.71532077 2.051465 4.6666665
4.1155148 -0.67679429 2.1822948 7
4.569984 -0.71019655 2.0285316 5.3333335
-3.0578272 -0.4728083 2.0809598 6.5
-2.847836 -0.45172274 2.1693869 6
-3.0145934 -0.20220365 2.0539398 8
-3.0960026 -0.12762019 2.0885451 6.75
-2.9677 -0.12586389 2.1402783 8
-3.0869255 0.12631539 2.1946421 7
-2.9616771 0.17370361 2.1309252 7
-3.0266483 0.32726201 2.1220245 8.333333
-2.9661686 0.39978564 2.1327105 9
-2.9442902 0.54030734 2.1691811 8.333333
-3.047642 0.768897 2.1423299 9.666667
-3.0121539 0.92176968 2.12869 12.333333
-2.9606903 0.935296 2.1205351 9.5
-2.9457712 1.0490534 2.1898525 11
-3.0288777 1.2856643 2.1829534 11.5
-3.0062723 1.5625956 2.1815481 13
-2.9578881 1.4147506 2.181937 11
-3.0225122 1.6427664 2.1524391 13
-2.8911612 1.7271013 2.1174848 15
-2.7744005 1.737012 2.0646853 13
-2.0932097 1.7525463 2.0963583 11
3.3174644 -1.2838533 2.2787919 1
3.4154239 -1.282692 2.2414494 1.5
-3.0192182 -1.1142116 2.3018107 2
-2.9558647 -1.0852512 2.3311882 1.3333334
3.3278351 -1.0837978 2.3121333 1.1
-3.0207865 -0.8758716 2.2535431 4.6666665
-2.9667139 -0.87939417 2.2640111 3
3.327106 -0.89740878 2.3002219 0.97435898
-3.0663567 -0.69964105 2.2983618 5.125
-2.9745014 -0.69404334 2.256737 5.3333335
3.3695545 -0.76523399 2.325392 1.9333334
3.4681556 -0.67303282 2.3111641 2.5
3.6971264 -0.67965162 2.2376866 3
-3.0399163 -0.44557822 2.2854989 6.75
-2.987524 -0.54209089 2.2525644 6
-3.0497324 -0.29725382 2.325597 6.1999998
-2.9748712 -0.2365908 2.2347455 6
-3.0302715 -0.076139919 2.2462265 8
-2.9640083 -0.18605807 2.221992 8
-3.0305097 0.099139437 2.2757676 7.5
-2.8304577 0.0058923364 2.3692589 7
-3.0471931 0.3733142 2.2823613 8.75
-2.9498057 0.31051797 2.2285762 9
-3.0541472 0.49889135 2.2934353 8.3999996
-2.9729462 0.50940514 2.2956104 8
-3.0752327 0.70789057 2.2806687 10.333333
-2.9407599 0.71925569 2.3263178 9.333333
-3.2143433 0.94429594 2.2758031 12
-3.0260551 0.93773049 2.267364 11.611111
-2.9539626 0.95002216 2.2882497 10.875
-3.2197876 1.0743442 2.3269114 12.5
-3.0609274 1.1041677 2.2744288 11.529411
-2.9585044 1.0991082 2.2772162 11.545455
-3.2109962 1.2882009 2.2983048 13.5
-3.0178823 1.2787045 2.2577555 11.818182
-2.9781334 1.2989892 2.2885578 12.642858
-2.7990823 1.3932773 2.2851677 10
-3.2315512 1.5243398 2.3311527 14.666667
-3.0787051 1.4808378 2.2737832 12.444445
-2.9772537 1.4917678 2.274648 13
-3.2035539 1.6780971 2.3077395 15
-3.0388744 1.685322 2.3000474 12.5
-2.9643426 1.6880965 2.2792876 13.333333
-2.9630051 1.8173711 2.3577909 15
-2.956902 -1.2467501 2.4460194 1
-3.0612354 -1.0334684 2.4345419 1.3333334
-2.9783382 -1.0147877 2.4335618 2.5
3.3151269 -1.038475 2.5114636 0
-3.0123119 -0.93874633 2.4920471 3
-2.9707611 -0.95661974 2.4940553 2.5
3.3038175 -0.90719223 2.4881094 0.8125
-2.9511554 -0.70923883 2.5192869 4.6666665
3.3391242 -0.74066949 2.4761114 2.0625
3.4288507 -0.60519743 2.5774372 3
-3.0513544 -0.46642464 2.4690425 4
-2.9676054 -0.29712817 2.5487576 6
-3.0706539 -0.042071078 2.4034946 7.5
-2.9555531 -0.12474996 2.4664471 7.5
-3.0625031 0.078610741 2.4730263 7
-2.9871869 0.055116922 2.4952061 8
-2.999007 0.3391881 2.4018788 9
-2.8738763 0.45647448 2.4995337 9.5
-3.065346 0.63308281 2.4292512 8
-2.9664226 0.74320662 2.5420654 13
-3.058341 0.90741342 2.5644507 14.5
-2.8896842 0.87048471 2.5994887 14
-3.2704537 1.132778 2.5882823 13
-3.041513 1.0829712 2.4201193 12
-2.9766312 1.0709263 2.4016192 15
3.5423169 -1.5483258 2.6742196 0
-2.8826132 -1.2208946 2.7112544 0
-3.0296776 -1.1109169 2.6732364 2
-2.9728394 -1.0448197 2.6212611 3
3.3082395 -1.0591013 2.6349692 0
-3.1087246 -0.88405591 2.6563237 0
-2.9950604 -0.82293409 2.7925634 4
3.3148491 -0.89431763 2.6834803 0.63333333
3.4088554 -0.91237849 2.7538581 0.5
-3.013582 -0.71079147 2.6419044 4
3.3260028 -0.71762735 2.7119668 2.0999999
3.4255025 -0.72468585 2.7470441 2
3.4132624 -0.57163346 2.7968643 3
-2.9777389 0.61871672 2.7849526 10
-3.2274327 0.94772029 2.7177219 12
-3.0323596 0.84842396 2.7058179 12.75
-2.923439 0.87509078 2.7390652 14
-3.2397568 1.3397529 2.6068559 14
-3.2511337 1.4534016 2.6997833 14
-3.003973 -1.2259722 2.8171635 3
3.3318331 -1.2135279 2.9997275 0
-3.0240939 -1.1443834 2.8126137 2
-2.9757059 -1.1049788 2.8909163 2
1.8774779 -1.1140991 2.923398 4
3.3123615 -1.0655274 2.8999741 0
-3.049186 -0.87312925 2.9884081 6
-2.9952199 -0.90868688 2.9442389 4
3.3328519 -0.85593462 2.8980906 1.0833334
3.4319072 -0.96604651 2.8786943 0
1.9589565 -0.69021547 2.8556519 5
3.3712914 -0.6706937 2.8702414 3
3.4222341 -0.66552913 2.8475626 1.5
-3.0260229 -0.43223685 2.9817858 7
3.39358 -0.57485092 2.9680851 3
3.4293232 -0.5751639 2.9330995 3
-3.0330048 -0.03676331 2.9863806 8
-3.0018148 0.75262988 2.9758434 10
-3.2333946 0.99397367 2.9747763 12
-3.0568411 0.9104743 2.8342872 15
-2.9337318 0.83009809 2.9791465 14
-3.2457254 1.0258243 2.886306 12.5
-3.2365661 1.217268 2.8144832 13.5
-3.2820055 1.4422841 2.8272858 15
7.7109385 -1.5220042 3.0889201 1
-2.958744 -1.2023259 3.1169057 1
7.8363318 -1.348384 3.1468329 2
-3.0265439 -1.0807896 3.0221016 2.6666667
-2.9757333 -1.0998348 3.0728459 3
3.3138394 -1.0470018 3.1467233 0.5
-3.0460582 -0.90886384 3.0905361 4.5
-2.9645667 -0.85831541 3.1653571 4
3.3401508 -0.9221037 3.0877237 0.33333334
3.4311972 -0.8394587 3.1050565 0
-3.0177519 -0.74350578 3.0000632 4
3.3541956 -0.71656096 3.1150427 2.25
3.4313939 -0.70616055 3.0829067 1
3.4700027 -0.52248281 3.1184723 3.2777777
-3.007066 -0.37781 3.1018791 7
-3.0306389 0.39885443 3.0841179 9
-2.9988496 0.7656706 3.1177945 10
-3.0485592 0.87089574 3.1196566 12
-2.9946899 0.86357456 3.1071463 11
-3.2264717 1.160786 3.0619855 13
-3.2306442 1.2124302 3.1790233 13
-3.2487621 1.438205 3.1056199 14
-3.2414064 1.6632414 3.1342821 15
-7.2473478 2.8587594 3.0630791 15
7.8015089 -1.4874951 3.2582402 2
-3.0286834 -1.2257584 3.2607226 2
3.3491547 -1.2875627 3.3814585 0
7.5854111 -1.3991286 3.2766049 2
-3.0124104 -1.0854514 3.2756476 4
-2.9828842 -1.0471237 3.2105086 3
-3.044879 -0.93660754 3.3190391 3
-2.9744461 -0.82511199 3.3246903 4
3.3122947 -0.99559045 3.2357266 0
7.817976 -0.83072227 3.2299478 5
-3.0127163 -0.76375818 3.3358219 5
-2.9822633 -0.6777131 3.2948945 5
3.3696816 -0.63553488 3.3547852 3
3.4251027 -0.71257925 3.3417993 0
-3.0142138 -0.49199867 3.2939143 6.5
-2.98558 -0.45404589 3.3574398 6
3.3518605 -0.48527801 3.3576899 4
3.4760442 -0.49596053 3.2927096 3.0384614
-2.9881389 -0.2136364 3.3307948 7
3.5024686 -0.39881065 3.2854543 4
-3.0214818 -0.066348739 3.3704705 8
-2.9858007 -0.10773189 3.2978063 7.5
-3.0186143 0.35732514 3.3071315 9
-2.9501019 0.66829789 3.2174997 13
-3.231889 0.97402316 3.3145416 12
-3.0440204 0.89685774 3.3008289 14.5
-2.9330807 0.93953723 3.2408037 15
-3.2351038 1.0556388 3.2755179 13
-3.2380819 1.2365396 3.3117888 13.5
-3.2311597 1.4455073 3.3736546 14.5
-3.2256389 1.654035 3.3582304 15
-3.0647924 1.7489415 3.3726277 15
-2.9885242 2.0063047 3.3402729 14
8.2902718 2.2837145 3.3706121 11
-3.0989056 -1.2480217 3.4786615 0
-3.0369196 -1.0749807 3.509793 2.5
-2.9808254 -1.124512 3.4183578 3
3.3129196 -1.1155229 3.4285433 0
-3.0306997 -0.94594133 3.4547544 4.5
3.3301625 -0.82849061 3.4924102 0.75
-3.0187769 -0.74045229 3.5539937 5
3.3449311 -0.67988145 3.4488447 1.5
3.363601 -0.52046478 3.4942176 3.4000001
3.4299846 -0.50053543 3.4772518 3.5
2.9238298 -0.31891572 3.5159388 6
3.5261483 -0.32304651 3.5160775 3.375
8.5309639 -0.19325948 3.5724902 8
-2.9949946 0.082050093 3.5728545 8
-3.0433102 0.34169745 3.5577593 10
-2.9898224 0.34732655 3.4622195 9
8.9249468 0.4854463 3.4880686 8
-2.986326 0.69777697 3.4422722 10
-3.2237422 0.98016769 3.4990273 12.333333
-3.0817502 0.891195 3.5996907 13
-2.9634109 0.85072863 3.5860813 13
8.5382729 0.86281705 3.566596 13
-3.2408812 1.1080844 3.5038092 12
-3.1853781 1.154321 3.5776715 13
8.9478245 1.0405548 3.532825 9
-3.2443752 1.2954671 3.4717667 13
-3.1776245 1.3220943 3.5395501 14
-3.2252419 1.4748453 3.5172386 13.714286
-3.1976039 1.5404667 3.5464914 15
-3.2249873 1.6916275 3.45188 14
-3.1521542 1.6966213 3.5039189 14.5
-2.9548123 1.9599836 3.4459078 15
8.5615559 2.1659527 3.5862017 11
8.690794 2.0974426 3.4885278 11.5
9.0130672 2.0698731 3.4648485 11
-3.0269814 -1.0574498 3.7161934 4
3.3312953 -1.0714426 3.6821184 0.16666667
-3.0107787 -0.84110391 3.7451367 5
-2.977164 -0.91096139 3.6944957 4
3.3377562 -0.92724991 3.6184394 2
-3.0078473 -0.78100497 3.7692051 5
2.9507561 -0.77740949 3.6988096 5
3.3528955 -0.75946063 3.6365292 3
3.4430435 -0.7298134 3.7192993 0
8.4632826 -0.65576595 3.6778564 6
-2.9981458 -0.46370211 3.6604488 6.6666665
3.5700603 -0.48554283 3.6057749 3
8.4820814 -0.44265282 3.6708126 6.6666665
-3.0263093 -0.34166095 3.7944889 7
3.5837984 -0.23099884 3.7331452 4.5
-3.0009081 -0.056645982 3.7297893 8
-2.9950066 -0.18851759 3.6382113 7
3.6093535 -0.19932249 3.6094356 4
8.5269184 -0.16263893 3.6750245 7.5999999
-3.0165467 0.038794413 3.7647314 8
8.1304913 0.096445128 3.7221498 8
8.387722 0.16335982 3.6884727 8
8.500865 0.1281579 3.7063694 9
-2.9860146 0.34540662 3.7263598 9
8.5156221 0.30208358 3.7106426 8.666667
8.6285076 0.30283961 3.6394806 8
-2.9610338 0.58509964 3.6696362 10
8.5138826 0.46480188 3.753402 9.6000004
8.6173286 0.50857031 3.6694007 8
-2.977659 0.74548292 3.6555009 10
8.4995384 0.69343066 3.7284825 10.833333
-3.2084086 0.97340429 3.6421859 11.5
-3.1076634 0.91596848 3.7185814 12.5
8.1584339 0.80309385 3.7351255 9
8.5223646 0.90606576 3.753988 10.857142
8.673192 0.8974188 3.6917388 9.1999998
-3.2119632 1.0740018 3.6520312 12.5
-3.1704278 1.1563102 3.6851766 12.5
8.5286207 1.1410568 3.7317784 12.5
8.6679192 1.0987839 3.7232156 11
-3.2010047 1.3346993 3.6185024 13
-3.1788418 1.277949 3.65693 13.166667
8.5291138 1.2753096 3.7238646 12.625
8.6809616 1.3039153 3.6752949 12
-3.2109983 1.499301 3.70279 14
-3.1767654 1.4594438 3.6788304 14
8.5289469 1.4858755 3.6946125 13.666667
8.6753359 1.4140946 3.6220379 10
-3.2068293 1.6365846 3.7072916 15
-3.1127837 1.6704651 3.6549904 14.333333
-2.9433217 1.718099 3.7617335 14
8.552578 1.7536334 3.7006764 14
8.5260735 1.8861542 3.7284503 13.25
8.6737537 1.8400337 3.6525431 10.5
-2.9719145 2.0039504 3.7491159 14
8.5263119 2.1263852 3.7000017 13.75
-2.966666 2.3611429 3.6738501 15
8.5314407 2.3213453 3.7681127 13.5
8.7206049 2.3491709 3.6052942 12
8.5368805 2.4634693 3.6769631 15
-3.0476294 -1.0865903 3.8952458 1
-2.97454 -1.1382421 3.9202664 3
3.3527026 -1.1568698 3.9352388 1
-3.0285144 -0.87364352 3.8283341 5.5
-2.9567318 -0.67352831 3.9513974 5
3.3643196 -0.66903007 3.9004941 2.4000001
3.4305732 -0.71463138 3.8459208 0
-3.0254326 -0.47762346 3.8293486 7
3.3955271 -0.549061 3.8773694 4
3.4464507 -0.50870502 3.9745781 3.75
-3.0259347 -0.055984646 3.8207054 8
3.6093397 -0.1874301 3.8869712 6
-3.0101597 0.37646481 3.8357022 9
8.2586184 0.25429699 3.8510847 7
8.5122452 0.26570278 3.8203931 10
8.3780651 0.58787555 3.8121672 10
8.5250692 0.48558426 3.8268423 8
-3.0018082 0.78883046 3.9108477 10
-2.9430008 0.78325009 3.9651041 14
8.2993097 0.79785812 3.8709745 8
-3.2086158 0.9963662 3.929934 12
8.4762726 0.83842456 3.847425 10.5
-3.2500858 1.1280061 3.853894 14
-3.1860545 1.0871452 3.9424529 13
8.5246601 1.0957613 3.8570213 9.8000002
8.6671438 1.0376484 3.8038793 12
-3.2277243 1.2468796 3.8749344 13.333333
-3.1930273 1.2971658 3.9510505 14
8.5247211 1.269434 3.838237 13.5
-3.2307889 1.5196726 3.9600894 15
8.4613543 1.5466294 3.8095331 12
-3.2025082 1.6352599 3.8934259 15
-3.1069705 1.676385 3.9247658 14
8.6413956 1.7222197 3.837141 11
-2.9217196 1.9992498 3.8207946 15
8.3844566 1.9085134 3.8414164 12
8.5247097 1.8910645 3.800189 14
-3.0509324 -1.0789152 4.1027021 1.5
-2.9804015 -1.1168667 4.1597719 4
3.3385255 -1.0699338 4.0430946 0.33333334
-3.0423267 -0.97710198 4.133471 3.3333333
-2.9839535 -0.93347859 4.1164966 4
3.3394129 -0.95119971 4.082304 1
-3.1789639 -0.71828604 4.1458483 5
-2.9953165 -0.78568178 4.178731 5
3.3474298 -0.66564524 4.1379571 2.25
-2.9906659 -0.52752209 4.1232815 6
3.4466755 -0.50742126 4.1105084 4
-3.0531549 -0.21066862 4.1704173 6
-2.9952719 -0.24493092 4.0313115 7
3.5791194 -0.36262903 4.1591902 1.6
-3.0403433 -0.065526709 4.0487165 7
3.6542797 -0.058801964 4.1419201 8
-3.0144784 0.75114357 4.0248804 10
-2.9475846 0.77851361 4.0454378 14
-3.0740769 0.89169574 4.1745157 12.333333
-2.906517 0.85721922 4.0780573 14.5
-3.2153547 1.1728811 4.1510725 13
-3.2250729 1.2615683 4.0379381 13
-3.2166719 1.475235 4.0356083 14
-3.1957965 1.5160244 4.0506854 14.5
-3.1020253 1.7106661 4.0556173 14.2
-3.000458 1.8767563 4.0724792 13
-2.968405 1.8869032 4.1255417 13
-2.9644449 2.1240711 4.1413341 14.333333
-2.9718871 2.2787488 4.132967 14.5
-2.972847 2.5604134 4.0847235 15
-2.9743612 2.6593134 4.1508503 15
3.3867085 -1.2712575 4.245698 0
-3.0424616 -1.1407752 4.3232169 2
3.3527172 -1.1029776 4.290482 0.33333334
-3.0414598 -0.8926909 4.2316976 2
3.3548307 -0.86765832 4.2921638 1.8333334
-3.0416188 -0.76517487 4.3848186 4
3.3601277 -0.66558969 4.3009806 3.2
4.0312214 -0.66885507 4.3187532 0.5
4.3627524 -0.67140186 4.3666239 0.95833337
4.7667942 -0.74558145 4.2747669 1.5
4.8431511 -0.62916845 4.3284669 3
-3.0081666 -0.55751556 4.2883015 7
3.3921759 -0.58438981 4.3260756 4
3.5005121 -0.46073896 4.3258867 2.8076923
3.7889271 -0.40124899 4.3446584 4
3.8559151 -0.50785601 4.3637533 2.5
4.0792971 -0.57520235 4.3354425 2
4.3948727 -0.5607385 4.3751755 2
4.4554768 -0.51089931 4.3809242 3.3333335
4.865025 -0.56915283 4.3391395 3
-3.0073187 -0.2539213 4.2534695 7
-2.9658966 -0.23342407 4.3692994 7
3.5388267 -0.33047506 4.3446622 4.0892859
3.7230687 -0.28748089 4.3343573 5.083333
3.8237879 -0.30989432 4.3284063 4.875
4.5369244 -0.36458999 4.376893 5
-2.9478858 -0.17833367 4.3564582 7
3.580117 -0.13611613 4.3718867 7.6666665
3.6461186 -0.10540386 4.3633895 7.2380953
3.8232732 -0.16173232 4.3495312 6
-3.038476 0.31335598 4.2525291 9
-3.0963547 0.70495582 4.2132044 10
-2.9741795 0.73451108 4.2632494 8
-3.2071359 0.97377604 4.3017726 13
-3.1082976 0.95559269 4.3170309 12.46875
-2.9650486 0.91025293 4.3114748 12.8
-3.2209551 1.1496636 4.2635989 12.5
-3.118969 1.1224234 4.3210735 12.527778
-2.9830275 1.0979733 4.3507233 12.555555
-3.2450473 1.2438358 4.2456856 13
-3.1220639 1.3253438 4.3284488 12.705882
-2.972327 1.2889916 4.3605919 13.333333
-3.2554562 1.5010585 4.2887626 13.333333
-3.1224592 1.5106745 4.3198833 13
-2.9776249 1.4990793 4.3571949 14.333333
-3.1417496 1.6788366 4.3276653 13.5
-2.9542372 1.7153951 4.3448868 13.333333
-2.9560566 1.8963102 4.3014283 14.166667
-2.9615414 2.113692 4.2551656 14
-2.9549665 2.2627902 4.3056808 14.5
-2.9535801 2.7305346 4.3210239 15
-3.02017 -1.2542648 4.4602523 0
3.3906584 -1.2213756 4.4514141 0
-3.0315104 -1.0390199 4.4556942 5.5
-2.9823196 -1.1235352 4.5229931 2
3.3585949 -1.0380839 4.4681091 0.80000001
-3.0362597 -0.964697 4.5849066 6
-2.9939573 -0.93790638 4.5856509 6
3.3548567 -0.87727296 4.4256325 1.5
-3.0304444 -0.68035519 4.4732842 5.4000001
-2.9706686 -0.6970253 4.48599 5
3.3748305 -0.7197386 4.4677386 1.75
-3.0137002 -0.55324888 4.5356717 6.6666665
3.3955519 -0.57531732 4.4502125 4
3.4692588 -0.47304839 4.440341 3.2
4.3877177 -0.56583118 4.4223685 3
-3.0097966 -0.33914793 4.4777584 7
-2.9976599 -0.26604697 4.4985409 7
3.5560102 -0.3259196 4.4837861 4.6833334
3.6866322 -0.28683129 4.4584022 4.8333335
3.6505692 -0.13187109 4.4736466 6.8566666
-3.0130639 0.026962176 4.4770546 8
-2.9808817 0.066154175 4.4712563 8
-3.073138 0.58797157 4.4789829 12
-2.9583013 0.91596001 4.4486933 11.166667
-3.3926516 1.0014493 4.4177852 11
-3.032896 1.0580285 4.4792714 9.5
-2.9686368 1.0766588 4.4359674 11.75
-2.7334785 1.0759029 4.5876923 9
-3.3857336 1.2940044 4.4210644 12
-2.971642 1.324425 4.4457731 12.6
-3.0354199 1.4715242 4.4444122 10
-2.9413834 1.416378 4.4655237 13
-7.1786451 1.7737188 4.5491757 12
-3.1230891 1.6445497 4.4565105 12.666667
-2.9371059 1.6317325 4.448431 12.333333
-2.7247777 1.6101702 4.5260696 10
-7.1740055 2.1151223 4.5155282 13
-2.9662488 2.0605423 4.4136043 13
-2.9427087 2.3697286 4.5926843 15
-7.1535048 2.4434128 4.4347582 14
-2.9490454 2.4951987 4.4069762 14
-7.1454005 2.8261645 4.4446402 15
7.4358087 3.5582647 4.554286 13
6.9958487 4.0383072 4.5399103 14
6.7146239 4.73311 4.5901699 15
3.6436534 -1.6126531 4.7330728 0
-0.79293418 -1.4100606 4.6058531 0
-1.1273328 -1.2982994 4.6439209 0.5
-0.90889096 -1.2596339 4.6861653 1
-3.0202146 -1.1056215 4.7109046 2.2857144
-2.9547324 -1.1326034 4.6582279 1
-1.1245825 -1.0298055 4.6451597 2
-0.92052674 -1.0801384 4.7077894 2
3.3696008 -1.0900511 4.7632742 0.5
-3.0194254 -0.93496621 4.7391 3.8
-2.9787185 -0.96627122 4.7623291 3.3333333
3.3876088 -0.93143201 4.6130943 1
-3.0146782 -0.69645882 4.7306404 4.6666665
3.3802996 -0.69930983 4.6459312 2
-3.0291462 -0.51961082 4.7826381 4.75
-2.9784033 -0.477898 4.7329144 6.5
3.4808393 -0.47834158 4.6762085 3.1428571
-3.0388894 -0.31254369 4.7737746 6
-2.9658635 -0.27621955 4.7715926 6.875
3.5629594 -0.36205891 4.7444763 2.5555556
3.6127663 -0.35838932 4.7679057 2.5
-3.0392859 -0.08407364 4.7400255 7.2857141
-2.9682293 -0.1207836 4.7634969 7.5
3.6642275 -0.11285649 4.7116528 7.5
-3.0254178 0.086588517 4.7485294 8.5
-2.9924133 0.058885634 4.7633238 8
-3.036732 0.30709028 4.7618933 9.375
-2.967557 0.36145985 4.7438345 9
-3.0190113 0.54408687 4.7646723 10.333333
-2.988785 0.46022105 4.7611914 9
-2.9611185 0.71049082 4.7613554 10
-2.9574165 0.92103833 4.7496123 11.666667
-3.0320892 1.1248233 4.7430787 14
-2.9839549 1.1021224 4.7729535 11.571428
-3.0839756 1.2673572 4.742218 9.333333
-2.9697978 1.2818669 4.7391572 13.333333
-6.1201324 1.5979184 4.6553087 12
-3.0012696 1.4980779 4.7959342 12
-2.9487255 1.5423522 4.7740765 12.5
-6.1484127 1.6262285 4.6630974 12
-3.1432278 1.7519283 4.7158995 10
-2.8578439 1.6806273 4.6313314 10
-6.0828128 1.967205 4.662075 13
-3.0719757 1.8353744 4.6729994 11
-2.970566 1.8916156 4.7668447 12.2
-2.9527414 2.1098289 4.769063 14
-6.0786524 2.3139684 4.660327 14
-5.983531 2.3342788 4.6669755 14
-2.9532278 2.2803285 4.6899247 14.333333
-7.1397228 2.5447633 4.6038532 14
-2.9423192 2.5287399 4.7905378 15
-2.9658487 2.6149697 4.7929883 15
7.0062795 3.5305924 4.7889004 14
7.5469985 3.466665 4.7749991 12.5
6.822154 4.090775 4.7842617 13
7.0811229 4.141551 4.6081114 14
7.6554546 4.1847224 4.7455864 13
9.18645 4.108264 4.7785339 13
7.0391197 4.3162131 4.7925396 14
7.502387 4.2680674 4.6849656 14
8.0918264 4.3288059 4.7378221 14.333333
6.8871469 4.4893551 4.7167754 14.5
3.3918574 -1.2699766 4.8355055 0
-3.0522888 -1.0880958 4.8389859 1.4545455
-2.9628885 -1.0266256 4.8734884 3.0999999
3.3696029 -1.1133549 4.9411922 0.5
-3.0467911 -0.89856285 4.8330708 1.9722222
-2.9802816 -0.86839259 4.8375902 3.2
3.3742008 -0.90747434 4.9520464 1.3
-3.04726 -0.70063072 4.8520746 3.2647059
-2.9726956 -0.73610753 4.8656225 3.875
3.3904014 -0.70438564 4.912673 2.5999999
3.4149032 -0.67135733 4.9406366 4
-3.0592587 -0.52045685 4.8544216 4.1923075
-2.9661644 -0.50536215 4.8254447 5.3333335
3.4532931 -0.53131211 4.9131064 3.4285715
-3.0440032 -0.3042765 4.8522153 5.590909
-2.9614971 -0.27089724 4.8796268 6.3333335
3.588171 -0.29553723 4.9149694 5.5416665
3.6242652 -0.31012261 4.9261217 4.375
-3.0388501 -0.12508111 4.8622956 6.9285712
-2.982852 -0.071894333 4.8460026 7.875
3.6540506 -0.16898088 4.9268742 7.4666667
-3.0352709 0.09806864 4.8472085 8.2692308
-2.9643416 0.082899429 4.865418 8.166667
-3.0362353 0.28881386 4.8481622 9.5500002
-2.9672616 0.32940876 4.8504505 9.5625
-3.032599 0.48286483 4.8546219 11
-2.9679284 0.49619988 4.8484368 10.888889
-3.0233548 0.69587606 4.8597646 12.25
-2.9575202 0.72326875 4.8737979 11.533334
-3.0249245 0.89385992 4.838172 13.227273
-2.9712532 0.88644701 4.8575745 11.305555
-3.0182753 1.0672638 4.8312631 14
-2.958313 1.1167257 4.8870697 11.75
-3.013 1.3005462 4.836863 14.75
-2.9619014 1.3209716 4.8641615 12.266666
-2.9647856 1.4984827 4.8719096 13
-3.0345395 1.6434593 4.8807755 10
-2.9451683 1.6969231 4.8946071 12.916667
-2.9388542 1.9225496 4.8824577 13.416667
-2.9356003 2.0703647 4.9078555 13
-2.9630616 2.2724674 4.8645544 13.6
-2.9411962 2.4797485 4.9203372 14
-2.9477761 2.7014446 4.8624082 14.333333
6.8275137 2.622968 4.9234295 11
7.1481862 2.6352141 4.9178104 12
7.7467985 2.73738 4.9975996 11
9.0099249 2.6006966 4.9649029 11
-2.94436 2.856432 4.869884 14.666667
7.5161495 2.9116497 4.8489909 12
7.6885009 2.8804836 4.9452801 12
-2.9383154 3.0899746 4.8920717 15
6.6269865 3.1752851 4.9966078 12
-2.9505699 3.287626 4.8498306 15
8.5359125 3.337501 4.9089642 13
8.662426 3.3175607 4.9368806 12
3.331248 3.5743253 4.9889784 13
3.8043113 3.521723 4.9292126 13
4.2436581 3.532371 4.9983349 14
6.9033461 3.5756214 4.8119526 13
7.1380744 3.5130119 4.854599 13
7.6870804 3.4369845 4.8990583 12.5
8.4292555 3.4571927 4.9254761 15
8.748848 3.5282195 4.8851366 14
4.1137686 3.6209209 4.9267936 13
7.1786709 3.6735229 4.9650459 13
7.5446019 3.7928872 4.9416523 14
8.8212519 3.6369555 4.9899836 15
6.7357607 3.84762 4.8625822 13
6.8869524 3.9243035 4.8585606 15
7.6623373 3.9993258 4.9035139 14
8.722538 3.8264995 4.9747663 14
8.9169903 3.9789281 4.8970261 14
9.1650152 3.8200378 4.967659 15
6.9070606 4.0246964 4.8674583 13
7.1208487 4.163928 4.878119 14
8.9800987 4.1217918 4.9794283 13
9.0542231 4.1175289 4.8978214 13
3.6006551 4.2846532 4.9160614 14
6.791049 4.2846313 4.8960505 14
6.836225 4.2355108 4.9112673 14
7.0839114 4.3271289 4.9046674 14
7.5315051 4.3599472 4.8902798 15
8.1575632 4.2214766 4.8581486 13
8.7085829 4.2459002 4.8259468 14
7.107707 4.423429 4.9105358 14
7.0952854 4.7071261 4.9015369 14
3.4458466 -1.4795122 5.0752139 0.33333334
3.3823652 -1.2897332 5.1107483 0.5
3.4112203 -1.2175156 5.0479288 2
3.3686771 -1.0580939 5.1355257 0.5
3.443841 -1.0637028 5.1614532 1
3.3719049 -0.91205978 5.1616926 1.5
4.7853022 -0.80973244 5.1049328 0
3.3903775 -0.72449231 5.1284866 2.25
3.4055672 -0.65372741 5.1927748 2
3.4623644 -0.5215978 5.1663604 3
4.8411074 -0.5949896 5.1665697 2.5
3.586082 -0.39097714 5.11274 3
3.6589642 -0.25093257 5.0156412 5
3.7296419 -0.13795441 5.1709495 6.75
-3.043242 0.29067701 5.0063858 9
-3.0202723 0.51222974 5.0059328 10
3.0229969 1.5616559 5.1419344 10
3.2960169 1.6587713 5.1346855 10
3.2218273 2.1516156 5.0266581 11
3.6219673 2.0184698 5.0551481 12
3.1327996 2.5752776 5.1307516 12
4.4978857 2.5979319 5.179306 12
4.6302638 2.5731642 5.1933537 14
7.0705657 2.4678752 5.1327767 12
3.6380398 2.7024281 5.0916462 11
4.0887461 2.6570477 5.1169872 11
4.7558665 2.6931624 5.1525869 11
6.9283428 2.6356962 5.0361443 13
7.1326046 2.6834376 5.0542316 11
7.6962328 2.7536733 5.0899029 11
8.2570715 2.7570853 5.1891785 11
8.8831015 2.7382836 5.1700602 12.5
9.0093527 2.6928444 5.0905256 11
9.2502718 2.722271 5.1063385 11
3.1483605 2.8716505 5.1492939 12.666667
3.3149076 2.8542333 5.1251683 12
3.5540133 2.9981661 5.1207104 12
3.6963036 2.9506669 5.1242251 13
4.1499872 2.9043925 5.1614256 12.5
4.3833394 2.860661 5.0542097 14
4.6488328 2.9475441 5.1751337 14
6.8519506 2.9502604 5.1834736 12
7.0659328 2.9254055 5.1167531 12.5
7.258275 2.940515 5.1085577 12
7.5222058 2.8607063 5.0254169 12.5
8.2625771 2.9321239 5.1265564 13
8.7710781 2.8998437 5.1223116 13
3.9049425 3.0987837 5.0825281 13
4.5391665 3.0620067 5.1795197 15
6.9850473 3.1053483 5.1588054 12
7.2989912 3.0029988 5.0851688 12
7.7089438 3.0269041 5.0242195 12
8.2218866 3.0249515 5.1323757 12
8.700038 3.0920568 5.0472236 13.5
8.8051167 3.0182025 5.0312128 12
6.9277072 3.3512607 5.1056013 13
7.2627702 3.364773 5.1915092 12
7.4787145 3.2058737 5.1495056 13
8.3830061 3.2369356 5.0022488 13
8.6634531 3.2595067 5.1804628 12
2.9644709 3.5592086 5.0933504 13
3.05878 3.4059894 5.1979485 12
3.2828507 3.5591128 5.1952438 13
3.8060501 3.5683296 5.1795578 14
4.0932574 3.5402057 5.1367831 13.666667
4.2128072 3.5525677 5.0112104 14
8.3108864 3.4974024 5.1416249 13.5
3.2883954 3.6343784 5.0819969 13
3.423028 3.6897757 5.1472702 13
4.1162176 3.608644 5.0185795 13
4.3664656 3.6279426 5.0053806 14
6.9455018 3.7130439 5.1887035 13
7.1444521 3.7263474 5.0993881 13
7.4340529 3.7482245 5.0328541 14
8.2937241 3.6981821 5.0941696 13.5
