# .PCD v0.7 - Point Cloud Data file format
VERSION 0.7
FIELDS x y z intensity
SIZE 4 4 4 4
TYPE F F F F
COUNT 1 1 1 1
WIDTH 1231
HEIGHT 1
VIEWPOINT 0 0 0 1 0 0 0
POINTS 1231
DATA ascii
5.3355894 -0.85310709 -36.551399 6.5
5.9059491 -0.87091565 -36.649422 7
6.3526525 -0.86598933 -36.435982 7
6.6055961 -0.91435051 -36.485271 7
7.3286953 -0.95369065 -36.667637 7
7.7753029 -1.0674005 -36.697063 7
8.3190155 -1.0927224 -36.766079 7
8.8447523 -1.1157897 -36.783188 7
9.3507338 -1.1360871 -36.734631 7
9.8496532 -1.1541685 -36.620506 7
10.313428 -1.1680398 -36.4161 7
25.562586 -1.0178742 -36.738342 7
-2.3035843 -0.47624803 -36.423317 6
-1.782851 -0.48896742 -36.599079 6
-0.48440802 -0.48138273 -36.507809 6
1.1763867 -0.51694953 -36.514572 6
1.2168543 -0.55692565 -36.667812 6
1.7200516 -0.54004157 -36.772366 6
3.9169989 -0.75904524 -36.50634 7
4.1151781 -0.66240156 -36.495911 6
4.6133776 -0.74186707 -36.539715 6
5.3202152 -0.71407861 -36.713039 7
-3.7384248 -0.15615067 -36.545479 6
-3.4405148 -0.33637217 -36.434528 6
-2.8419955 -0.35539976 -36.788143 6
-11.12709 0.20782132 -36.72831 6.6713333
-6.0647588 0.16211908 -36.71574 7
-5.3062387 0.15159856 -36.447632 7
-31.046896 0.48224774 -36.756935 7
-21.906136 0.45936057 -36.794327 7
-10.957907 0.62727487 -36.740105 6
-33.630047 0.97157544 -36.481369 7
-32.833611 1.078043 -36.598373 7
-32.448711 0.94262147 -36.536469 7
-26.333981 0.82699859 -36.418613 7
-11.574785 0.98284388 -36.566494 8.0410004
-11.052429 0.96215427 -36.608665 8.0404997
-9.5315857 0.90206075 -36.667061 8.0389996
30.955908 1.1182899 -36.590637 9.0010004
31.562365 1.094875 -36.769527 9.0190001
-6.4020791 1.2308114 -36.508945 8.0225
-30.161388 1.8162041 -36.562752 8.2806253
-11.548885 1.9369174 -36.598896 9.0410004
-6.3051176 1.7749488 -36.629829 9.0404997
-32.653801 2.3421831 -36.471237 8.0664997
-31.692837 2.290606 -36.647221 8.066
-28.420202 2.1100025 -36.695137 8.0644999
-9.2878962 2.2226088 -36.782734 9.0255003
-9.9805851 2.7897043 -36.708305 10.0395
-2.2775331 3.1985977 -36.47982 10.002
-34.983265 3.5168242 -36.556599 8.1155005
-7.3678904 3.2898822 -36.645237 9.5522499
-7.0126028 3.3862445 -36.471333 10.005
-5.3805943 3.3321564 -36.489254 11.0395
-2.4380503 3.3299024 -36.420712 10.002
-2.3865948 3.2474835 -36.565624 10.002
-72.277626 3.9044466 -36.446518 9.0469999
33.42939 4.2691431 -36.621494 11.0045
-49.785736 4.7387667 -36.759438 9.0622501
-7.8042722 4.4386606 -36.462765 12.0375
-48.569534 4.9987292 -36.531597 9.1195002
-18.308924 5.1948428 -36.75843 10.1115
-48.944721 5.4960518 -36.752148 9.0775003
-50.610188 5.722034 -36.687622 9.5545006
-23.713514 5.7143517 -36.720375 11.0685
-22.951134 5.6350842 -36.511215 10.1095
-17.430408 5.9698677 -36.445122 11.107
-17.096415 5.9493871 -36.623646 13.019
-18.141266 6.1833172 -36.597538 11.428
-17.919003 6.0651212 -36.790955 13.0195
-49.778343 6.4002252 -36.499153 9.1195002
-49.184959 6.6176219 -36.642765 11.0325
-18.184891 6.474597 -36.592476 11.10725
-17.832842 6.5035524 -36.763798 13.052
-48.886345 7.0425076 -36.660767 10.1195
39.578682 7.44559 -36.779343 13.016
15.787032 -1.2680098 -36.392136 5
16.055895 -1.2844738 -36.074791 5
-1.2673085 -0.86257088 -36.149864 7
2.2758873 -0.92955798 -36.302711 6
3.915976 -0.84004605 -36.006836 7
4.5392709 -1.0454438 -36.085552 5
4.9677753 -0.89744443 -36.216049 6.5
5.2705564 -0.83818007 -36.045208 7
5.8156991 -0.90611732 -36.253971 6
6.1003203 -0.98330086 -36.185894 6
-3.7302878 -0.44466686 -36.03915 6
-1.5725423 -0.44258785 -36.140202 6
-1.0324678 -0.46148902 -36.316437 6
-0.16045165 -0.57125103 -36.017735 6
1.0246794 -0.61043882 -36.153019 6
1.4288877 -0.59211707 -36.084545 6
1.7894542 -0.6070298 -36.095963 6
2.2103641 -0.65018082 -36.198864 6
2.7089698 -0.62447977 -36.302925 6
2.8082016 -0.67346609 -36.354275 6
3.4061875 -0.693591 -36.307281 6
3.6560268 -0.64626634 -36.328056 6
6.6878386 -0.67238271 -36.334679 5
-5.3714862 -0.21329251 -36.135536 6
-4.766757 -0.22559407 -36.182194 6
-4.1079397 -0.33845112 -36.373634 6
-1.7140481 -0.37663266 -36.357586 5
6.8586597 -0.21910612 -36.36256 6
-22.13378 0.31530884 -36.204887 7.3516669
-21.837223 0.25870758 -36.145145 7
-30.762369 0.4245646 -36.256783 7
-23.328596 0.74315947 -36.110287 7
-22.593468 0.68230295 -36.256817 6.6666665
-21.988144 0.5160231 -36.109169 7
30.528549 0.7134794 -36.252762 8.0555
-11.737553 1.0415552 -36.340267 8.0129995
-6.5891609 0.96383095 -36.094116 8.0410004
-6.0116205 1.1605825 -36.004963 9.0094995
-5.7690916 0.93398178 -36.058151 8.04
31.439028 1.1415341 -36.397789 9.0054998
31.707161 1.0342776 -36.212448 9.0144997
-30.478437 1.3369482 -36.305584 8.0249996
-27.356342 1.4397535 -36.227562 7.5279999
31.510565 1.4107368 -36.226879 9.0050001
-30.275478 1.617023 -36.135002 7.5287499
-28.760572 1.8787241 -36.210442 8.059
-26.464314 1.702101 -36.132126 9.0299997
-26.229332 1.6833044 -36.103485 8.0421247
-25.637634 1.6892974 -36.301308 9.0345001
-24.871695 1.7055905 -36.139847 8.0570002
-7.323451 1.797407 -36.012768 8.0985003
31.585732 1.975356 -36.171787 9.0550003
-32.234718 2.3081856 -36.303291 8.0609999
-25.021038 2.5951862 -36.209679 8.5647507
-24.526129 2.7746525 -36.322498 9.0504999
-23.629347 2.7112925 -36.329655 9.0500002
-24.804487 2.8571713 -36.121281 9.0570002
-7.5949607 3.1613171 -36.201794 9.0994997
-5.3756738 3.0475545 -36.123386 11.019
-7.6684203 3.3391161 -36.20763 9.0994997
-7.4972782 3.3529422 -36.174866 9.0992498
-6.9961805 3.3701706 -36.230564 9.7787495
-6.7153225 3.3660302 -36.242496 10.049
-6.1623859 3.4733579 -36.011307 10.178
-4.3085036 3.3168545 -36.009567 10.0035
-1.6929709 3.2027221 -36.097515 10.0015
-7.394537 3.6993978 -36.093624 10.083833
-7.1394477 3.8686316 -36.061146 11.023501
-6.7120185 3.8605549 -36.155136 11.023
-6.0856018 3.6825488 -36.077724 9.0959997
-4.5776281 3.9197648 -36.041626 12.008
33.709038 3.8548608 -36.090828 11.007
33.782726 4.2507849 -36.016834 11.004
35.54454 4.3991256 -36.297455 11.0035
-32.085068 4.7779493 -36.207912 9.1145
34.162857 5.3214436 -36.324844 12.007
35.02837 5.4642735 -36.161503 12.004
35.38068 5.343009 -36.147453 12.009
-49.204376 5.8915467 -36.323105 9.1199999
-24.192429 5.7960529 -36.040428 10.1115
-23.54985 5.7700534 -36.187008 10.1105
34.351479 5.7590418 -36.32798 12.004
-50.909466 6.0026164 -36.026535 9.1204996
-49.035946 6.1100168 -36.062675 9.1199999
-23.312593 6.1540704 -36.114426 12.0215
34.620247 6.1919255 -36.394939 12.054
11.614818 -1.2003224 -35.601288 7
-1.9680002 -0.85536623 -35.926773 7
0.85758376 -0.92217857 -35.921764 6
2.614938 -0.88098627 -35.649277 6
3.0807683 -0.89189881 -35.695179 6.1428571
3.5256209 -0.88314497 -35.779877 6
3.7731395 -0.88994873 -35.728809 6.5
4.0888968 -0.94433701 -35.820618 6
4.5761294 -0.90261859 -35.928993 6.3333335
5.1298075 -0.93289471 -35.934998 7
5.5292039 -0.99434519 -35.656448 6
6.5761824 -0.99833906 -35.869038 5
7.1158361 -1.0183368 -35.64782 5
10.643558 -1.1645188 -35.83847 7
-4.3590145 -0.4303416 -35.762024 6
-3.23226 -0.40829825 -35.670723 6
-2.6892416 -0.42523062 -35.826794 6
-2.1439769 -0.44274688 -35.983425 6
-1.4343591 -0.53984964 -35.754562 6.5
-0.61684555 -0.64797038 -35.784084 6.6666665
-0.23053801 -0.55346119 -35.74242 6
0.1754669 -0.56311166 -35.849312 6
1.0089639 -0.57892013 -35.909378 6
3.3996005 -0.79852128 -35.922646 6
-5.7753844 -0.096649617 -35.637848 6
-5.3443346 -0.12988791 -35.702385 6
-4.6519012 -0.30220512 -35.932045 6
-2.5947504 -0.38821873 -35.755291 6
-25.83013 0.34198868 -35.746033 7
-22.186541 0.27563947 -35.698505 6.5
-14.01981 0.27232519 -35.926723 6
-6.8940988 0.16609141 -35.699879 6.4020996
-25.917 0.4637979 -35.801579 7
-23.328815 0.71907145 -35.725822 7
-22.640499 0.70037407 -35.842087 7
-22.38546 0.46484378 -35.717735 7
-19.121088 0.7478478 -35.989693 7
-17.490177 0.43400401 -35.997051 7
-13.422432 0.41049621 -35.72311 7
-12.835481 0.42375085 -35.766071 7
-6.9448891 0.56775951 -35.752209 6
-3.5236928 0.60093147 -35.834183 8.0024996
-6.6197181 1.0151494 -35.749786 8.0419998
-6.3611722 1.1495243 -35.607506 9.0100002
-32.012688 1.349999 -35.682667 8.026
-30.631382 1.4560627 -35.852028 7
-16.600277 1.3199599 -35.764549 7
-14.139752 1.3330212 -35.664791 8.0555
-13.680386 1.3089457 -35.623707 8.0550003
-13.367089 1.2982149 -35.948345 8.0544996
-33.375412 1.7634883 -35.880264 8.059
-24.987913 1.6604247 -35.767342 8.0384998
-5.0736389 1.8100209 -35.767899 8.0967503
-2.3569074 1.974404 -35.617382 9.0019999
-32.626896 2.3211429 -35.741714 8.0614996
-30.681875 2.3649702 -35.725544 8.1145
-5.4148684 2.00125 -35.63755 9.1774998
-31.69179 2.5195248 -35.671211 8.073
-8.0698824 2.6087413 -35.701408 10.043
-32.899147 3.1645558 -35.841492 8.1149998
-8.0351887 3.0585165 -35.959198 9.0994997
-5.27355 3.1879132 -35.917103 9.0974998
-4.0493231 2.9634182 -35.96254 9.0965004
-33.713356 3.3812566 -35.700115 8.1160002
-8.0036726 3.4602532 -35.704777 11.038
-7.804822 3.4185154 -35.792381 10.08375
-7.0205126 3.4593084 -35.820999 10.610001
-6.5500278 3.5538352 -35.911598 10.099
-2.6067188 3.2512186 -35.708485 10.002
-7.3853507 3.9636912 -35.664566 10.099
-6.98597 3.9855964 -35.807785 12.0105
-6.5557041 3.7774947 -35.886871 10.720334
-6.2211075 3.7587304 -35.831779 10.541249
-7.2210579 4.1441441 -35.741066 10.1025
-7.1644154 4.1234035 -35.842976 10.7485
-6.4167185 4.1309805 -35.923504 12.041
-6.3049107 4.1340942 -35.925468 10.579374
-50.729549 5.2986679 -35.836868 9.0719995
-23.494986 5.2679329 -35.908001 10.111
35.526573 5.4669161 -35.648258 12.0035
-50.961437 5.6498518 -35.711044 9.0784998
34.766308 5.7515469 -35.766445 12.0035
34.972614 5.8566995 -35.605133 10.1225
41.183334 6.5918226 -35.859795 11.065
12.130203 -1.221047 -35.523403 7
12.659601 -1.2435541 -35.477768 7
13.164816 -1.2627341 -35.354443 7
14.342783 -1.3125836 -35.216049 7
16.81951 -1.3361733 -35.342632 5
0.5862776 -0.80977166 -35.394218 7
1.0183617 -0.85255557 -35.387859 6
1.4447391 -0.84939194 -35.459007 5.75
1.9168772 -0.84592199 -35.5093 6
2.1864214 -0.84812427 -35.506592 6
2.5716009 -0.83112878 -35.560326 6.5
2.8941326 -0.87784809 -35.474033 6
3.8517325 -0.87810069 -35.337692 6
4.1647596 -0.86837327 -35.315502 5.5
5.4680471 -0.92488211 -35.22559 5
7.4477482 -1.0258273 -35.387619 5
23.010963 -1.1020238 -35.238132 7
-4.8409328 -0.41818917 -35.420933 6
-2.4542806 -0.49301875 -35.272179 6
-2.1093497 -0.64389855 -35.29213 7
-1.8129277 -0.54464751 -35.343571 6.25
-1.0507303 -0.53375852 -35.485176 6
-0.54665416 -0.6896069 -35.21978 6.5
-0.13403738 -0.71713865 -35.29129 6.1999998
0.23526372 -0.71465659 -35.32394 6.3333335
0.50082695 -0.73833168 -35.317162 6.5
0.99046886 -0.74366933 -35.385075 6.1999998
1.3309118 -0.77606934 -35.401714 6.3333335
2.1388962 -0.77711779 -35.579185 6
4.0896273 -0.59035659 -35.359962 6
-6.5665441 -0.065745056 -35.205975 7
-6.2490034 -0.081889093 -35.435577 6.5
-5.8424201 -0.23175943 -35.452175 6
-4.2279801 -0.35702664 -35.258087 6
-3.9095795 -0.31304541 -35.41597 6
-27.430742 0.37681398 -35.416515 7
-23.403082 0.30433923 -35.233227 7
-22.915543 0.31836039 -35.324043 7.0117502
-22.580564 0.2824665 -35.384548 6.3333335
-22.271086 0.31573087 -35.501499 7.3519998
-17.679688 0.2840243 -35.439629 8.0200005
-13.147868 0.34656709 -35.410122 7
-9.7218447 0.32603735 -35.24472 7
-6.5854192 0.16165774 -35.4622 7
-3.8629518 0.029057376 -35.448082 6
-27.53599 0.46536198 -35.571083 7
-26.465281 0.46224651 -35.467651 7
-26.32613 0.58868802 -35.218887 6
-24.517359 0.45625392 -35.302708 7
-23.758701 0.52450722 -35.373375 7
-22.507727 0.50824368 -35.369846 7
-18.17062 0.65782297 -35.50909 7
-17.555099 0.57879692 -35.340508 7
-14.289975 0.77576023 -35.207829 7
-13.139983 0.55391717 -35.469246 7
-3.6344688 0.60248351 -35.282822 8.0030003
-3.4490399 0.61294377 -35.24865 8.0030003
-32.884167 1.1616137 -35.249725 7
-31.725946 1.128038 -35.321793 7
-19.66514 0.90409404 -35.229065 7
-19.562719 0.93456042 -35.268421 7
-7.5012307 0.80758965 -35.337166 8.0375004
-6.7450385 0.96148401 -35.544907 8.0085001
-5.6988606 1.1786892 -35.46983 8.0220003
-30.645018 1.3897729 -35.481388 7.5127501
-19.420452 1.4457358 -35.523369 7.6209998
-14.958615 1.284595 -35.452065 7
-13.522331 1.2727987 -35.493816 8.0492496
-5.2187319 1.5849185 -35.207588 8.0965004
-4.274931 1.3210814 -35.42495 9.0384998
-32.13271 1.9014803 -35.396175 8.7068329
-31.936417 1.6925226 -35.201733 7
-30.276388 1.7976824 -35.320526 8.0415001
-25.722519 1.7301023 -35.353638 8.0579996
-5.4515562 1.8882313 -35.274036 9.0535002
-4.8058767 1.9416839 -35.221943 8.0965004
-4.6072593 1.8730531 -35.454285 9.0038328
-2.2173605 1.8573079 -35.412361 9.0019999
-1.9324685 1.8502855 -35.395176 9.0015001
-32.346809 2.0295577 -35.527264 8.0609999
-24.04904 2.0736372 -35.270287 8.0695
-19.606546 2.238694 -35.332825 9.052
-13.53617 2.1956661 -35.277737 8.1025
-7.7054501 2.3265378 -35.552139 8.0985003
-6.1169119 2.3606453 -35.279556 10.0405
-5.7967181 2.0362232 -35.307766 10.0095
-4.9695978 2.0253479 -35.516396 8.6513996
-19.478094 2.5131276 -35.409054 8.1087494
-6.756999 2.6564472 -35.257832 9.0994997
-5.5337396 2.4351695 -35.593616 10.046
-31.466238 3.0817444 -35.552334 8.1140003
-25.813723 3.1344507 -35.570827 9.0585003
-7.7741861 2.9731777 -35.319317 9.440937
-7.1873837 3.1549351 -35.318005 10.006
-4.8117313 3.0796003 -35.371212 9.1000004
-4.0323629 3.0085182 -35.353367 9.7438326
-2.9705334 3.0383444 -35.507114 9.0955
-2.3205447 2.9148037 -35.37093 9.0939999
-8.0417986 3.3102238 -35.310974 9.4326668
-7.8860612 3.3635619 -35.412476 10.06775
-7.5052724 3.3343327 -35.489971 10.005666
-5.5256715 3.2836161 -35.423668 10.0045
-4.8271427 3.5341358 -35.277328 11.0065
-4.7279572 3.2627411 -35.391449 10.348666
-3.6167157 3.2522953 -35.415283 10.003
-7.8248801 3.7752178 -35.249901 11.032499
-6.8410439 3.9159412 -35.550404 10.0985
-5.3489118 3.9033928 -35.204166 12.046
-4.8654017 3.8331475 -35.358089 12.0085
35.224659 3.8241816 -35.288197 11.0085
-7.7995305 4.2754583 -35.314617 12.038
-6.6809406 4.0843234 -35.582054 10.102
-14.845599 4.7638102 -35.486042 10.1055
-14.248122 4.5869799 -35.207878 10.104
-14.818837 4.9091067 -35.328732 10.106
34.359974 5.961309 -35.513527 10.094
40.709568 6.5959821 -35.419407 11.156
13.620655 -1.2768528 -35.134174 7
15.347666 -1.3496964 -34.898293 7
-2.0303252 -0.91134363 -34.945553 6
-1.626658 -0.84386986 -34.862972 5
-1.2837578 -0.88344854 -35.064667 5.5
-0.78638697 -0.86487061 -35.064751 5
-0.3334921 -0.83868849 -35.169903 6
4.0910673 -0.94875896 -35.192661 6
4.4277096 -0.95863891 -35.038319 6
5.8469362 -0.94061178 -35.142288 5
6.1916194 -0.94810754 -34.89991 5
7.749486 -1.029528 -35.068619 5
8.0635071 -1.036996 -34.805786 5
18.758968 -1.1138999 -35.025467 6
23.232491 -1.1926455 -35.100407 7
-3.0140245 -0.47412729 -35.026196 6
-2.6342843 -0.5568527 -34.86916 6.25
-2.2519155 -0.54882413 -34.997589 6.1999998
-1.859285 -0.63485837 -34.912853 6
-1.4019569 -0.67918766 -34.940445 6.1111112
-0.94738013 -0.68133628 -35.04594 5.8571429
-0.63290548 -0.71256709 -35.091545 6
-0.12401204 -0.73376614 -35.159355 5.8000002
0.20684215 -0.61843276 -34.929771 6.25
0.60072446 -0.4181591 -34.894646 6
0.86057186 -0.75732774 -34.930347 6.5
-7.1162519 -0.27728721 -34.848419 6
-6.5363412 -0.15669045 -34.915951 6
-6.2280674 -0.18646649 -35.033676 6
-5.2173147 -0.29560575 -34.921982 5
-5.1601524 -0.30895564 -34.856216 6
-4.6289539 -0.32246932 -34.921581 6
-26.179497 0.32525408 -34.931602 7.0127501
-23.54678 0.33275539 -35.009384 8.0340004
-18.929888 0.26887038 -35.094288 8.0310001
-18.731438 0.29094246 -34.992706 8.0209999
-17.652431 0.23811577 -34.992561 6.5
-13.367727 0.35577697 -34.948254 7
-10.165895 0.30358061 -35.042633 6.3333335
-26.934849 0.57465005 -34.882393 6
-24.069593 0.59668076 -34.959019 6
-18.486515 0.47696811 -35.095146 7
-18.081121 0.58680129 -34.850845 7
-17.721647 0.43539411 -35.034088 7
-14.056358 0.4105624 -34.941471 7
-13.490889 0.56782603 -35.167763 7
-10.252351 0.63577116 -35.144009 8.0445004
-9.8421316 0.52866507 -34.96246 7.6720004
-4.6522937 0.56387687 -35.010193 8.177
-17.303596 0.99535227 -34.89196 7
-13.762154 1.0224394 -34.919487 7
-13.41528 1.002992 -34.944347 7
-13.064351 1.0072523 -35.11729 7.5215001
-10.615707 1.1802659 -34.891602 8.0469999
-10.263454 1.1940393 -35.126625 9.0139999
-32.643448 1.4951196 -35.055923 7
-32.047817 1.4554789 -34.913464 7
-31.724846 1.5993456 -35.049541 7
-30.801355 1.4262869 -34.851009 7
-30.626629 1.5794203 -35.164555 7
-25.000765 1.3399856 -34.949909 8.0555
-12.985933 1.2390919 -35.057877 9.0214996
-64.224136 1.9757259 -35.004345 8.0340004
-30.976604 1.6437399 -34.907951 8.0585003
-30.554115 1.7636294 -34.92411 8.0187502
-6.7644072 1.9969926 -35.197151 9.1785002
-6.1240869 1.8090733 -35.076729 9.0080004
-5.3176122 1.9098343 -34.975697 8.097333
-5.0444016 1.7780713 -34.892399 8.7018337
-4.6660409 1.9824185 -35.050137 10.0185
-2.4249504 1.9329827 -34.919411 9.1754999
-1.7131932 1.9386985 -34.928658 9.0015001
-6.4847631 2.3533177 -34.852512 10.041
-5.3549585 2.02529 -35.013557 9.0529995
-32.176937 2.5385935 -35.157516 8.0734997
-27.264244 2.7309306 -34.969963 8.1090002
-7.6039829 2.6943545 -35.133564 9.1005001
-6.9545746 2.5145292 -34.883492 9.5707502
-3.0788105 2.7308483 -34.975567 10.019
-2.3056364 2.6410291 -34.908596 8.0959997
-8.0329313 3.1638236 -35.000107 9.0994997
-7.3292136 2.8992558 -35.183315 10.024
-6.4442253 3.0177915 -35.066704 9.1002502
-6.3473024 3.1148691 -34.9156 8.1014996
-5.846962 3.0919292 -35.097794 9.0678339
-5.3016663 2.8524125 -34.933739 9.7314997
-3.6719797 2.9414425 -34.828846 9.0959997
-3.4542496 3.0087473 -34.976444 9.743001
-2.9320812 2.9710875 -34.876778 9.2528334
-2.5002139 3.0938144 -34.86554 10.0025
-2.0416589 2.9172401 -35.140755 9.1619997
-31.640392 3.4607832 -34.974804 8.1195002
-9.2055664 3.3844819 -34.988972 9.1494999
-8.4876652 3.4786999 -34.88607 10.1
-8.2364798 3.421061 -34.98827 9.9502153
-7.9881892 3.2819121 -34.898895 10.0065
-7.4390578 3.4207618 -34.96973 10.685833
-7.0900869 3.3298137 -34.928589 10.092751
-6.072566 3.2425351 -34.849251 10.005
-5.6322374 3.4930422 -34.94754 9.0950003
-5.3615875 3.3116398 -34.947575 9.776166
-5.0582104 3.4459825 -35.072521 9.8002501
-3.7820983 3.2737832 -34.952248 10.52725
-3.5601127 3.2150705 -34.974609 10.003
-2.9683099 3.2077918 -34.998878 10.0025
-2.7563856 3.2445726 -35.11895 10.002
-8.5034704 3.6638899 -35.006714 11.0105
-7.893754 3.6724086 -35.177643 9.0974998
-5.7428751 3.9326277 -35.081379 12.0435
-5.4283338 3.8137076 -34.927994 11.1705
-2.687258 3.6527288 -34.873642 12.0425
-6.0651255 4.2381248 -34.838562 11.0975
-5.7687588 4.0667 -35.016293 10.57
-5.3359671 4.2095928 -35.112885 11.084875
-5.5064397 4.4072046 -35.022446 10.1645
-15.556669 5.1115909 -34.968407 12.0455
-14.3097 4.8050566 -35.130756 12.05
-14.818381 5.3681126 -34.818497 12.0635
-14.643273 5.5057139 -34.848362 12.384
35.438774 5.3458509 -35.134979 10.075
-10.432504 6.0626736 -34.913029 14
38.64323 6.292376 -34.802082 11.157
-10.73035 6.6508212 -34.873783 14
-88.767258 9.0408983 -35.136398 10.0365
-88.389084 11.257804 -35.180859 10.07
15.785627 -1.3616977 -34.613438 7
-2.4364848 -0.82044333 -34.528828 5
-1.9505814 -0.86183178 -34.750164 7
6.6808343 -0.95699292 -34.490654 5
7.264071 -1.0434679 -34.542862 6
8.3683624 -1.044021 -34.532661 5
8.915946 -1.0794791 -34.644207 6
9.4389696 -1.0971801 -34.405029 6
19.406498 -0.86515492 -34.462944 6.5
-4.1116667 -0.43952215 -34.592113 6
-3.7973533 -0.48620269 -34.458996 6.25
-3.3486912 -0.54138726 -34.536373 6.3333335
-2.923265 -0.58788544 -34.515907 6
-2.5273068 -0.62406117 -34.584038 6
-2.2187717 -0.66264826 -34.614319 6.1111112
-1.8930016 -0.68460447 -34.747318 6
-1.5966676 -0.78135824 -34.623371 7
-1.123515 -0.71044528 -34.588432 6.5
19.344336 -0.64811367 -34.642445 7
-8.5161991 -0.0015635937 -34.499306 7
-7.7214751 -0.046347231 -34.644089 6
-7.5543766 -0.22740617 -34.474403 6
-6.9804482 -0.13558802 -34.651733 6
-5.7123251 -0.31017751 -34.466896 6
-26.584988 0.32420388 -34.459526 7.013
-23.461136 0.26574472 -34.590034 6
-18.846834 0.28057829 -34.782688 6
-18.233727 0.29646754 -34.775532 6
-17.818293 0.28359652 -34.735569 8.0205002
-15.14517 0.21738134 -34.701103 7.0117502
-14.466187 0.22073126 -34.540943 7.0139999
-14.262648 0.20185046 -34.691963 6.5
-13.777502 0.1957822 -34.633301 7.0089998
-13.518255 0.36399904 -34.415222 7
-10.565969 0.13602072 -34.573334 6.506125
-10.182495 0.35808975 -34.458237 7
-9.926137 0.33945772 -34.783386 7
-9.4092522 0.021917403 -34.417122 7
-7.819243 0.17033343 -34.474361 7
-7.1671824 0.1645845 -34.758137 7
-18.857075 0.61271393 -34.699776 6
-14.648107 0.63587856 -34.56678 7
-14.14263 0.60221529 -34.547054 6.5
-13.792962 0.46956998 -34.557526 7
-13.333539 0.64363503 -34.532349 7.0118752
-10.498955 0.63132566 -34.537041 7.0089998
-10.078962 0.45400873 -34.566086 7
-9.9435253 0.73845994 -34.727562 8.0080004
-6.6376095 0.55886281 -34.534225 8.0050001
-15.347732 1.0507699 -34.498138 7
-14.749263 0.91027302 -34.440556 7
-14.093128 1.1544356 -34.635303 7
-13.672552 1.0496625 -34.5886 8.0439997
-13.113916 1.0263295 -34.603603 8.0434999
-12.240703 1.1982887 -34.721878 9.026
-10.865273 0.9312619 -34.407372 8.0415001
-10.508363 1.1520857 -34.490238 8.6971664
-15.357132 1.215867 -34.729202 7
-13.825107 1.3130462 -34.506676 8.0532494
-12.288058 1.280475 -34.584732 8.0343742
-10.469415 1.316197 -34.554565 8.0594997
-10.285538 1.2402276 -34.514378 8.0275002
-5.0121078 1.3220283 -34.47057 9.0395002
-16.433969 1.6328251 -34.477989 8.0649996
-6.3964019 1.6643485 -34.490585 9.0474997
-5.6485701 1.9226866 -34.770554 8.0974998
-5.3641534 1.8636121 -34.50441 9.0406666
-4.8410378 1.6167151 -34.645782 7
-4.3331428 1.7756581 -34.455029 9.0524998
-3.5112085 1.7856531 -34.685722 8.0015001
-2.2800972 1.7886426 -34.649418 9.0019999
-1.7351296 1.9159274 -34.697182 9.1750002
-24.864847 2.1115541 -34.46328 8.0915003
-6.8666539 2.2632761 -34.764042 8.0970001
-5.6605854 2.2020159 -34.603573 8.7445002
-4.9599514 2.2328269 -34.426819 10.0395
-4.4981194 2.2075119 -34.437786 10.039
-25.282347 2.6814446 -34.625912 8.1145
-6.9801874 2.5932586 -34.677979 10.026
-5.8586907 2.4978211 -34.434223 9.7311668
-5.069241 2.7613275 -34.68858 10.0215
-2.9216428 2.6352897 -34.493774 8.0965004
-2.6211677 2.6664531 -34.48555 10.0185
-71.079132 3.0419238 -34.540768 8.0515003
-7.5345178 2.9920816 -34.792461 11.0215
-6.9544077 2.992476 -34.64341 10.05475
-6.5242677 2.9863317 -34.623466 9.552
-6.2410302 2.9661586 -34.550663 9.0981665
-5.7777004 2.9745207 -34.562363 9.0487499
-5.3649068 3.1653717 -34.45932 10.695168
-5.1283665 2.9538705 -34.457531 9.0974998
-3.4434922 2.9503894 -34.495438 10.10075
-2.8957126 3.1717887 -34.574852 10.0025
-2.6458271 3.0240176 -34.517662 11.037
-7.6808376 3.3481102 -34.782204 9.1485004
-6.4941196 3.3491607 -34.678867 10.096251
-6.0886087 3.2602601 -34.552933 9.5760002
-5.4490352 3.4036014 -34.658756 10.051667
-5.0126796 3.5542138 -34.510239 11.0215
-4.0163941 3.2091603 -34.501762 10.003
-2.6378112 3.5093975 -34.79385 11.0185
-8.8369598 3.6406379 -34.680153 11.011
-6.0667171 3.868814 -34.500141 11.067249
-5.7023697 3.8772974 -34.673088 10.04875
-5.5304813 3.8127856 -34.636398 11.297375
-13.923696 4.1443439 -34.78009 11.031001
-6.0626502 4.377521 -34.682613 12.008
-5.635108 4.0168943 -34.620399 10.098
-14.487965 4.7372355 -34.601952 11.077749
-10.621028 4.7611756 -34.434097 12
-10.247755 4.5103083 -34.44619 11.0085
-16.075375 4.9868426 -34.5718 10.1045
-15.309457 4.9216294 -34.547226 10.104
-14.976972 5.1933322 -34.715996 12.032001
-14.409648 4.8388615 -34.631432 12.0565
-14.375255 5.1224728 -34.653515 12.031499
-11.450038 5.0421271 -34.415382 10.0995
-10.849721 5.1001592 -34.458218 10.401333
-10.562719 5.0932994 -34.591747 11.5
-10.294921 5.1791077 -34.783726 13
35.293571 5.1981616 -34.473381 12.008
-15.262324 5.4988194 -34.703743 12.546249
-15.039953 5.4855719 -34.535805 12.0625
-11.514732 5.2053437 -34.571152 11.1035
-10.986856 5.4397221 -34.549007 11.767833
-10.760133 5.3389931 -34.700405 12.07475
35.008793 5.3218107 -34.533714 12.003
37.281647 5.310183 -34.541252 10.074
-11.248097 5.760448 -34.499119 12.225083
-11.006846 5.7324729 -34.490086 12.120193
-10.713472 5.6915841 -34.627884 13
35.482201 5.7226892 -34.554977 12.0025
-11.372841 6.1841764 -34.521908 12.553438
-11.028955 6.2063322 -34.592461 12.532875
-10.746222 6.0827327 -34.599388 10.1225
-11.608648 6.6015978 -34.549625 12
-11.348232 6.671752 -34.535683 12.583667
-11.08572 6.5075974 -34.646057 11.367667
-11.276027 6.8992476 -34.549255 12.2206
-10.917571 6.9250879 -34.71273 15
-2.8316836 -0.808837 -34.338112 5
-2.5825181 -0.85106158 -34.384109 7
-1.9801221 -0.82028407 -34.396194 5
-1.2736636 -0.85604811 -34.32444 7
7.1696987 -0.97023612 -34.156185 5
7.5911884 -1.0521469 -34.295055 6
7.9313827 -1.0648276 -34.115707 6
8.6996088 -1.0574819 -34.357491 5
9.022727 -1.0702702 -34.165646 5
9.9704428 -1.1170981 -34.19149 6
19.863672 -0.97753638 -34.107086 6.6666665
-4.1398883 -0.53579122 -34.136356 6.4000001
-3.851738 -0.55546641 -34.185806 5.75
-3.437263 -0.62342632 -34.19072 6.125
-3.0059655 -0.61497921 -34.295837 6
-2.5751951 -0.68768686 -34.292915 6
-1.8333455 -0.65577608 -34.220379 6.3333335
-1.5876995 -0.60784119 -34.214176 7
19.694674 -0.74422216 -34.300297 7
-8.65695 -0.024208518 -34.06673 6
-8.1951609 -0.14582953 -34.182869 6
-7.4714074 -0.23509534 -34.176163 6
-7.1729975 -0.10508612 -34.346451 6
-6.6665821 -0.32143992 -34.190979 6
-6.2132645 -0.28884202 -34.183228 5.6666665
-5.9000301 -0.28029951 -34.380646 5
-24.203218 0.3271794 -34.046997 7.353333
-23.715408 0.33828646 -34.31039 8.0345001
-15.1506 0.27777162 -34.362236 6
-14.495535 0.27603462 -34.289452 6
-14.077061 0.29924107 -34.305641 6
-13.955339 0.3744247 -34.307301 7
-13.595754 0.23321766 -34.377457 6
-12.089283 0.1287082 -34.235806 6
-11.895637 0.21786743 -34.118622 7.2605
-11.389439 0.31997913 -34.067352 7
-10.936392 0.25721353 -34.081524 6.7531252
-10.559082 0.32319474 -34.212765 7.1286874
-10.354769 0.32004634 -34.379047 6.5
-9.666811 0.036058947 -34.022644 7
-32.36068 0.46021307 -34.309544 7
-16.188934 0.60234576 -34.105309 7
-15.851147 0.4167417 -34.25021 7
-14.199125 0.44306642 -34.318474 6.8000002
-13.80102 0.63581121 -34.280479 7.5240002
-13.453123 0.57208014 -34.308388 7
-12.464459 0.7349081 -34.039669 8.0469999
-12.05372 0.42240018 -34.190033 7
-11.919862 0.4955076 -34.349617 6.5
-11.256484 0.47639781 -34.274078 7
-10.853924 0.64067113 -34.067535 8.0272503
-10.440501 0.58133495 -34.201855 7.00425
-10.270661 0.64789933 -34.102879 8.0085001
-6.6250734 0.71805495 -34.340946 8.0054998
-5.7294264 0.59752327 -34.020649 8.0050001
-14.606819 1.0280609 -34.275742 7.5082502
-14.19057 0.99429911 -34.064671 7.3495002
-13.992914 0.85549664 -34.36124 7
-13.300541 0.85416019 -34.324768 7
-11.679555 1.1824014 -34.049919 8.0539999
-10.665388 1.1071898 -34.284645 8.0497503
-7.0158753 0.97728902 -34.044052 7
-5.8997388 0.90417492 -34.097313 8
-5.4356108 1.0276088 -34.266788 7
-17.04277 1.3386598 -34.209572 7
-16.707909 1.3779631 -34.153427 7
-16.115395 1.3659484 -34.278835 7
-15.134483 1.3396252 -34.040138 8.0325003
-14.042783 1.33066 -34.127869 8.0509996
-13.731723 1.2229954 -34.261654 8.6983337
-13.531713 1.3442706 -34.153755 8.0388756
-12.456429 1.4158783 -34.35656 8.0614996
-11.72792 1.3698118 -34.024155 8.0609999
-10.56809 1.2500092 -34.030079 8.0360003
-5.3977442 1.3288956 -34.128834 9.04
-5.1525578 1.5736288 -34.098846 9.0459995
-3.8785443 1.5674063 -34.193729 9.0389996
-10.786804 1.6242021 -34.056507 9.0454998
-7.775619 1.9970869 -34.038383 10.017
-7.3194809 1.8796794 -34.099545 9.0059996
-6.9436054 1.8217493 -34.08577 9.0059996
-6.6023932 1.8376117 -34.007511 9.0050001
-6.1822305 1.9278847 -34.028111 9.1997499
-5.8139668 1.8163174 -34.154575 8.636796
-5.417769 1.824555 -34.238628 8.586112
-5.0390687 1.9032694 -34.218987 9.0403337
-4.7050176 1.8647543 -34.129581 8.7016668
-3.8887711 1.738965 -34.176262 8.717
-3.3980575 1.9428122 -34.197777 8.5497503
-2.9889927 1.8144897 -34.200958 9.0026665
-2.4728203 1.789489 -34.237278 9.0024996
-2.1879635 1.8859234 -34.236069 9.00175
-16.620411 2.2882323 -34.009647 8.1049995
-13.682129 2.200706 -34.244572 8.1049995
-7.9774399 2.2750595 -34.188591 8.1040001
-6.4709802 2.193284 -34.080208 9.0679998
-6.1837378 2.3116567 -34.322891 9.0687504
-5.8051262 2.3081419 -34.204346 9.3810005
-5.509634 2.1677229 -34.365688 9.0722504
-4.8640757 2.2030582 -34.154587 9.0681248
-4.6383371 2.2071681 -34.164986 9.0708752
-4.0002651 2.1312728 -34.066853 8.0959997
-3.9751151 2.1518085 -34.058575 10.0385
-3.3933303 2.1268332 -34.305084 8.0955
-3.0750072 2.1061921 -34.084873 10.0375
-2.6016757 2.1108241 -34.10006 8.0942497
-25.465473 2.7136109 -34.008896 8.1125002
-7.8535962 2.4550118 -34.200642 10.0385
-6.6221056 2.7436814 -34.154533 10.0315
-6.1544642 2.4185967 -34.249001 9.5699997
-5.7905917 2.7247479 -34.113079 9.3660002
-5.4256873 2.7005939 -34.11961 9.5527496
-4.9637885 2.6638291 -34.092297 9.0828333
-4.1033435 2.7672496 -34.088932 11.008
-3.4435699 2.6430037 -34.127613 10.054833
-3.1165314 2.7699823 -34.124229 10.056499
-7.3740211 2.887635 -34.204678 11.0115
-6.774384 2.936106 -34.027267 9.1654997
-6.1588597 2.9847853 -34.02507 10.385166
-5.7886357 3.0880558 -34.128761 10.537833
-5.4097219 3.0143471 -34.202896 10.314
-5.0271063 3.0124474 -34.19627 9.5825005
-4.7024779 3.0336802 -34.217098 9.3695002
-4.0775733 3.040225 -34.020157 10.521
-3.8318758 2.9677155 -34.073624 9.3990002
-3.3675878 2.9381843 -34.159924 9.4414377
-3.083338 3.0203876 -34.131763 10.347834
-2.6894135 2.9349585 -34.244007 9.5825005
-10.92547 3.360276 -34.059605 9.1035004
-8.7522182 3.3690298 -34.27026 11.0395
-7.1410246 3.216619 -34.097797 11
-6.7889543 3.476578 -34.211666 11.009
-6.390861 3.475194 -34.342381 11.0085
-5.8840694 3.4236541 -34.117413 11.008
-5.3760486 3.2463784 -34.148354 10.09775
-5.1004252 3.3737235 -34.359924 11.0535
-4.2564569 3.2816553 -34.14743 11.0525
-12.118671 3.6499646 -34.190548 11.0545
-11.783488 3.7624714 -34.282684 9.1005001
-11.560354 3.6035988 -34.0354 11.0425
-10.606155 3.7748082 -34.13369 10.262625
-11.735058 4.3189158 -34.049206 10.3405
-11.338791 4.3360643 -34.04126 10.5135
-10.97877 4.300005 -34.127033 11.0107
-10.668271 4.2867122 -34.212952 10.5
38.035099 4.390409 -34.247551 10.1515
-16.099598 4.7211452 -34.259304 10.107
-15.675186 4.6838279 -34.192772 10.1065
-14.945965 4.7919531 -34.279968 10.10625
-14.679587 4.5942445 -34.1675 10.106
-11.679872 4.5551434 -34.102219 11.083
-11.424757 4.5197139 -34.092663 10.351286
-11.032063 4.6141081 -34.177414 11.2849
-10.638668 4.6661468 -34.264503 11.186916
-10.248538 4.4008389 -34.299946 11.0085
-15.653515 4.8404102 -34.203255 10.1065
-15.408933 5.093823 -34.307842 11.579
-14.906655 4.9461966 -34.245255 10.60625
-14.746804 5.04072 -34.361286 12.049
-11.416031 5.1012836 -34.194324 12.057286
-11.035899 5.0658417 -34.252842 11.510714
-10.747533 5.1287804 -34.368401 13
37.541451 4.9223547 -34.322598 10.1385
-15.086813 5.3973966 -34.178951 11.1065
-11.709818 5.4295845 -34.237812 12.08975
-11.37957 5.4239779 -34.240696 11.7351
-11.05516 5.3184357 -34.275166 12.200168
35.508751 5.2215419 -34.127136 10.0745
-11.360881 5.6988344 -34.256046 11.729894
-11.157649 5.6678252 -34.337296 12.5
-11.60677 6.0939627 -34.353645 12.1035
-11.23707 6.0873957 -34.38892 12
-11.028366 6.023315 -34.312393 12.103
37.755569 6.2606878 -34.27018 11.1565
-11.310827 6.4894624 -34.368988 13.103
-4.6428394 -0.90420693 -33.683846 6
-3.8364046 -0.83081961 -33.68301 7
7.4968305 -0.98078543 -33.954292 5
7.8118091 -0.98934788 -33.70974 5
8.2185087 -1.0630832 -33.85857 6
8.5834398 -1.0865835 -33.686897 6
9.3203554 -1.0793638 -33.912521 5
9.6445541 -1.0937327 -33.72998 5
10.517751 -1.1388535 -33.980324 6
11.052484 -1.1600724 -33.756142 6
15.544215 -0.97084612 -33.810249 6
-4.9992061 -0.47598082 -33.66198 6.5
-4.5550752 -0.52449089 -33.882111 6
-4.1553774 -0.57836419 -33.835041 5.6666665
-3.8416612 -0.62972671 -33.799442 5.7142859
-3.4304051 -0.76114827 -33.662884 7
-2.6735818 -0.6280145 -33.816757 6
-8.9611473 -0.13113837 -33.798271 6
-8.5851078 -0.20084372 -33.60453 6
-8.0382881 -0.21316817 -33.92297 6
-7.8823729 -0.098132342 -33.819065 6
-7.3422632 -0.27583647 -33.72757 5.5
-6.9685974 -0.27340817 -33.891239 5.6666665
-5.6888847 -0.3897531 -33.7416 6
-28.813444 0.38265723 -33.694767 8.0275002
-16.146713 0.3054744 -33.863499 6
-15.839861 0.18112898 -33.632736 7
-15.224707 0.16849352 -33.616898 7
-14.115845 0.38237017 -33.800541 7
-12.071785 0.26574364 -33.996517 6
-11.61388 0.28387082 -33.921764 6
-11.394363 0.26949552 -33.912224 6.7164998
-11.058034 0.27757275 -33.920143 6.25
-10.511158 0.082685947 -33.756058 6.5
-10.208252 0.0046719592 -33.621372 6
-9.9366312 0.05998265 -33.751789 7
-8.3977442 0.17315112 -33.836002 7
-15.903111 0.4448542 -33.672783 7
-14.591661 0.59296596 -33.624352 6
-14.276447 0.48376083 -33.748177 6.8333335
-12.502422 0.5924418 -33.893539 6
-12.195164 0.70605516 -33.75766 7
-11.765617 0.57549185 -33.690533 7.0155005
-11.456867 0.64393663 -33.812866 7.2614999
-10.9826 0.5926888 -33.908337 6.6696663
-5.9548979 0.68373376 -33.996445 8.0050001
-16.811749 0.87617409 -33.914783 7
-16.590391 0.92857623 -33.941879 8.0504999
-16.145832 1.1493139 -33.917812 8.0465002
-15.402481 1.1546916 -33.817955 7.5229998
-14.176192 1.0016137 -33.814251 7
-12.17587 1.0484053 -33.760262 7.262125
-11.660419 1.0344634 -33.949593 8.0452499
-11.265136 1.1160653 -33.766109 8.5258751
-11.09317 1.0345091 -33.876755 7.6985002
-10.722496 1.122126 -33.891659 8.6956663
-6.9499936 1.0430973 -33.741058 7.7668753
-6.1015043 1.0631182 -33.74514 7.6137991
-5.8034697 1.0228429 -33.705879 7
-16.830912 1.3194481 -33.854557 8.0530005
-16.635792 1.2628615 -33.797516 8.0149994
-16.340929 1.2956911 -33.741817 9.0200005
-15.408097 1.2680469 -33.920761 9.0290003
-14.177391 1.3728797 -33.934673 8.5407505
-13.785355 1.4776381 -33.946716 8.0629997
-12.542632 1.4055665 -33.696442 8.0620003
-10.988378 1.2374643 -33.988049 8.0284996
-10.719524 1.535244 -33.995445 7
-8.1552601 1.558345 -33.77306 8.1665001
-7.0918827 1.4866978 -33.738979 9.0209999
-6.1325741 1.4723362 -33.808895 8.4346666
-5.729394 1.3278444 -33.631893 9.0404997
-4.0048909 1.4848925 -33.778389 8.1634998
-17.589973 1.8541347 -33.726559 8.1084995
-14.499769 1.7717947 -33.940872 8.1059999
-13.907137 1.7545129 -33.942013 8.1055002
-11.219428 1.6433827 -33.845329 9.0459995
-10.942263 1.8078555 -33.795158 8.5755005
-8.9954433 1.7562132 -33.756699 8.5727501
-8.0880718 1.9781641 -33.610641 10.0175
-7.7250333 1.7263579 -33.693569 8.7164993
-7.4738984 1.8853588 -33.860271 8.0994997
-6.9593682 1.8137149 -33.695839 9.0423746
-6.6107836 1.8647991 -33.88023 8.7796249
-6.1983118 1.8411925 -33.780487 8.1786499
-5.8708758 1.8035921 -33.839542 8.7905388
-5.2605619 1.8931186 -33.790451 9.0042496
-4.5624413 1.8827327 -33.822987 8.7758331
-3.85236 1.8645161 -33.948078 9.0295
-3.4004807 1.8029332 -33.781956 9.0027504
-3.1419246 1.7800133 -33.710022 9.0024996
-2.6108875 1.7842382 -33.948029 9.0022497
-16.849516 2.3586297 -33.729992 8.1059999
-15.676798 2.2631798 -33.961479 9.0579996
-14.151695 2.126056 -33.728939 8.1043329
-13.372272 2.1183009 -33.735352 8.5767498
-11.051274 2.0434773 -33.685005 8.0517502
-10.78368 2.2408185 -33.711132 8.1035004
-7.3061166 2.2442949 -33.775986 8.7486668
-6.9158669 2.278403 -33.777752 9.2588005
-6.6142612 2.1942954 -33.888268 9.0702496
-6.0106444 2.3425689 -33.977512 10
-5.2733436 2.0953169 -33.885597 8.0977497
-4.9374609 2.1801298 -33.774796 8.0955
-4.5197906 2.2700658 -33.705929 9.7251663
-4.1474419 2.1098874 -33.711117 8.0939999
-3.8168755 2.2296424 -33.86969 8.5949993
-2.1445911 2.0355263 -33.745659 10.0365
-15.303397 2.4376884 -33.819008 8.1070004
-6.6216831 2.597048 -33.784969 9.0985003
-6.0742383 2.6622028 -33.673271 9.6352997
-5.8335867 2.6766412 -33.867561 10.006577
-5.4335442 2.7696011 -33.916382 10.053499
-4.9111214 2.7651024 -33.859745 11.009
-4.4795556 2.6206357 -33.760014 9.4155006
-4.1352658 2.6268799 -33.971996 9.0968332
-3.7855649 2.4374952 -33.648582 10.052
-2.67295 2.6282392 -33.883602 9.0950003
-13.448184 3.0965002 -33.980667 10.031
-10.956213 3.0936022 -33.772919 9
-10.584297 3.0033102 -33.930717 8.0612507
-8.1034937 3.0765979 -33.641327 9.099
-6.7106285 2.8528264 -33.730198 11.021
-6.2282343 3.003253 -33.827644 9.8591499
-5.7754512 2.9968448 -33.842503 10.055972
-5.3722949 2.9905388 -33.858635 9.6302223
-5.0711355 2.9575627 -33.851543 9.6417007
-4.1840343 2.9286087 -33.864868 10.0695
-3.8542519 3.0427544 -33.822617 10.2975
-3.1396432 3.103472 -33.85524 10.0025
-12.057349 3.5709667 -33.764477 10.104
-11.802607 3.3155899 -33.687572 9.1514997
-11.245119 3.2164381 -33.721905 9
-11.033315 3.3898709 -33.810455 9.7764225
-10.496112 3.2660844 -33.91642 10.0085
-5.9058304 3.4281447 -33.838943 10.515917
-4.5074463 3.2314627 -33.766994 9.1464996
-3.3172615 3.4124534 -33.960922 11.0195
-15.138006 3.8784726 -33.897652 9.1040001
-14.785316 3.9246423 -33.916996 11.0455
-11.737633 3.6371665 -33.905464 11.04775
-11.410048 3.8526604 -33.873772 10.558562
-11.019748 3.8270791 -33.901047 10.83665
-6.1177883 3.6564023 -33.695099 12
-11.864504 4.0373878 -33.791756 10.104
-11.384854 4.2435703 -33.911163 10.407084
-11.110172 4.2044482 -33.955997 10.906688
-8.4269333 4.0661345 -33.616531 10.101
-8.2285461 4.0236874 -33.730347 10.715
-11.811754 4.6251464 -33.990883 11.1055
-11.43586 4.4543161 -33.94101 10.55175
-16.772482 5.139184 -33.924767 12.0185
35.828568 4.8023825 -33.817764 10.139
-12.265051 5.4474835 -33.670525 13.0435
-11.735447 5.3717418 -33.660454 13.043
-12.415592 5.6187525 -33.620869 13.015
-11.934724 5.613728 -33.879322 13.0145
-11.98733 6.3802204 -33.955433 14.043
-12.033966 6.585547 -33.877522 14.0145
12.130361 -1.204183 -33.276146 6
-3.1779571 -0.83102387 -33.568329 7
7.3360753 -1.0468626 -33.470104 6
8.2949696 -1.0074329 -33.425201 5
8.6865311 -1.0713344 -33.504917 6
8.9192266 -1.0842681 -33.307957 6
9.9670229 -1.1093414 -33.567055 5
10.292651 -1.125739 -33.404671 5
10.684198 -1.1532561 -33.389507 5
11.398126 -1.1728513 -33.576572 6
11.768216 -1.1889107 -33.43494 6
15.921673 -0.80126166 -33.542912 7
16.410273 -0.82067573 -33.484478 7
-5.7249336 -0.47241065 -33.34729 6.5
-5.4140697 -0.48255008 -33.348373 6.2222223
-5.0723886 -0.51107448 -33.494175 6.1428571
-4.545321 -0.58431637 -33.369404 6.1999998
-4.2012763 -0.68945408 -33.474663 6.1999998
-3.6843667 -0.7384764 -33.327118 7
-3.3856816 -0.65583491 -33.422081 5
-3.156719 -0.57891595 -33.475254 6.5
-9.3654356 -0.12141345 -33.229507 6
-9.1473007 -0.18960181 -33.362469 6
-8.1665535 -0.0935435 -33.412567 6
-7.7148051 -0.30547309 -33.332458 5.5
-7.526032 -0.23943403 -33.49522 6
-6.2028751 -0.37476587 -33.476212 6
-26.170082 0.27821416 -33.428864 6
-23.905598 0.26827353 -33.32658 6
-22.257591 0.26963991 -33.435986 6
-16.477043 0.30489111 -33.527191 6
-15.530125 0.27079025 -33.441025 7.0097499
-14.881767 0.28006199 -33.286144 7.0095
-14.549603 0.28269786 -33.542282 6.6666665
-10.831694 0.076095775 -33.383362 7
-10.788934 0.10739008 -33.551685 6
-9.526597 0.18533355 -33.251255 6
-8.9282246 0.175359 -33.217426 7
-16.238863 0.52144414 -33.522385 6.6666665
-14.965129 0.40251756 -33.532665 7
-14.586123 0.46575031 -33.364258 7
-9.225976 0.51931173 -33.262482 8.0074997
-6.9861245 0.76728714 -33.580498 8
-17.366257 1.034233 -33.214939 8.0194998
-16.58444 1.1659719 -33.519367 7
-15.566046 1.0392989 -33.337109 7
-14.48869 0.9190374 -33.448601 7.5085001
-14.391266 0.8243385 -33.40015 8.0489998
-13.827146 1.1158231 -33.390045 8.0477505
-13.29973 0.9793219 -33.431545 8.0159998
-12.751424 1.1420203 -33.382374 8.0495005
-11.576675 0.95052534 -33.249023 8.0144997
-7.3725796 1.045259 -33.43668 8.0530005
-6.9820065 0.90303266 -33.514664 8.0094995
-6.7539325 1.1184218 -33.260025 8.0240002
-6.1828594 1.006754 -33.459473 7
-16.923197 1.3313414 -33.493427 8.0266666
-16.118364 1.398937 -33.220661 8.059
-15.772346 1.3000534 -33.386124 8.026
-15.454447 1.2444377 -33.28688 8.0097504
-15.089967 1.2946895 -33.289165 8.2046671
-14.409432 1.2205453 -33.30925 9.0284996
-14.112184 1.2952521 -33.310863 8.0570002
-7.8209705 1.5575814 -33.381084 8.1000004
-6.9439354 1.3470191 -33.586128 7
-6.6622105 1.4732224 -33.41835 8.7481661
-5.3605328 1.5576071 -33.564568 9.0465002
-5.113894 1.5895982 -33.444073 9.0410004
-16.019777 1.933027 -33.20911 9.0504999
-14.930294 1.956809 -33.307789 9.0174999
-12.64295 1.8859963 -33.263268 8.1035004
-11.217799 1.6431719 -33.244083 8.1035004
-8.4143562 1.9489166 -33.256538 9.0620003
-8.2073383 1.8722172 -33.37793 8.502429
-7.8225722 1.8267013 -33.31699 8.8813572
-7.420001 1.9272366 -33.428543 8.0995007
-6.9692879 1.7633244 -33.420296 8.8120003
-6.5957422 1.8017263 -33.333302 8.3491249
-6.2744327 1.8634065 -33.358738 8.8634176
-5.7909822 1.9158974 -33.48391 8.5515003
-5.1361575 1.7430116 -33.411747 8.4143333
-4.0514393 1.8998901 -33.431061 8.550375
-3.7108972 1.7824345 -33.342209 8.7174997
-3.2694166 1.7640935 -33.533268 9.0030003
-2.9686766 1.8628559 -33.454479 9.0892496
-2.6460464 1.8250567 -33.424091 9.0019999
-16.876921 2.0002279 -33.521782 9.0509996
-13.770271 2.1128516 -33.381077 8.4216671
-13.505523 2.1478353 -33.231987 9.0314999
-11.529995 2.379626 -33.501408 8.1079998
-11.143031 2.0174556 -33.5494 8
-8.0573215 2.0606275 -33.421394 8
-7.8741813 2.0693948 -33.407757 8.0671663
-7.381794 2.0274606 -33.543232 8.1000004
-7.1353168 2.1723609 -33.33078 8.1035004
-6.6878762 2.2444639 -33.515587 9.0692501
-6.2027068 2.0802662 -33.290146 8.1009998
-5.7898207 2.1578245 -33.264427 9.07125
-5.4800034 2.1129262 -33.468224 8.1014996
-5.0807724 2.2667694 -33.53384 10.040501
-4.2699218 2.2224283 -33.591167 8.5955
-3.4933102 2.0720379 -33.459599 8.0935001
-2.9692733 2.0911672 -33.253555 8.0939999
-7.8419924 2.6015675 -33.304871 9.1002502
-7.5891638 2.6749113 -33.247742 10.057
-6.9734197 2.4205868 -33.593231 10.0435
-6.4848614 2.6101742 -33.434013 9.0995007
-6.2137465 2.7729001 -33.52589 11.0105
-5.2305679 2.6941452 -33.547634 9.0974998
-4.5026731 2.6168892 -33.458687 9.8334999
-4.2312999 2.6791763 -33.383747 10.0415
-3.8193104 2.6107013 -33.42012 9.9257231
-3.3375828 2.6063924 -33.359814 9.450201
-8.1503191 3.0299687 -33.532753 9.0502501
-7.7653437 3.0258858 -33.414791 9.6565008
-7.4859314 2.9316978 -33.354694 10.0335
-6.4278173 3.0369539 -33.306038 11.0425
-6.184762 2.9948313 -33.390266 10.2389
-4.588016 2.9800136 -33.407177 10.226213
-4.238832 2.9312181 -33.36182 9.7322226
-3.7842178 2.8743093 -33.349098 9.0738754
-3.501693 2.8682175 -33.450642 11.040001
-14.926681 3.4267447 -33.517872 9.1064997
-10.182308 3.3430374 -33.220783 11.053
-8.1503057 3.2430229 -33.558853 11.045
-4.3535285 3.3513777 -33.25872 11.021
-12.588341 3.6992135 -33.203728 11.0155
-11.848896 3.6552885 -33.262146 11
-9.0699863 4.3641028 -33.318008 10.1005
-8.6895199 4.3194351 -33.305969 11.6366
-46.624111 4.4035134 -33.20858 9.0600004
-12.111086 4.6210794 -33.457684 12.0075
-8.6094007 4.4539027 -33.530907 10.05525
-8.3255997 5.1361003 -33.253708 13.0435
-8.8211336 5.7896132 -33.217148 10.1215
37.191853 6.4326453 -33.481785 11.067
-88.652725 9.247859 -33.330864 9.1269999
12.464076 -1.2168549 -33.084999 6
12.811685 -1.2311525 -32.905399 6
8.2999554 -1.0882874 -33.083294 6
8.6741772 -1.060359 -32.982521 5.5
9.1668358 -1.0994048 -33.110863 6
9.3874321 -1.1006858 -32.992397 6
9.6755457 -1.1135395 -33.070869 6
10.091389 -1.1409097 -33.098301 6
10.679611 -1.1752872 -33.017487 6
10.989669 -1.1674701 -33.180714 5
-6.0862746 -0.42271391 -32.950466 6.3333335
-5.7671399 -0.44939354 -33.044064 6
-5.3495836 -0.48573413 -32.97657 5.5
-5.1055341 -0.56810111 -33.013439 6.1666665
-4.6103711 -0.74313372 -32.940605 6.3333335
-4.0585523 -0.72927666 -33.038589 7
16.755938 -0.71134675 -33.149971 6
17.092421 -0.76400924 -32.998814 7
-8.5313797 -0.091614097 -33.198689 6
-8.390008 -0.34345019 -33.080509 6
-6.6011467 -0.3563925 -32.832306 6
-26.540995 0.27012503 -32.96032 6
-26.219355 0.2342557 -33.033844 6
-23.922157 0.24800697 -32.834904 6
-11.411357 0.082181886 -32.834297 7
-11.02514 0.11050584 -33.102795 7.3418336
-10.602417 0.10254173 -32.847206 6
-9.7806988 0.12447782 -32.966621 6
-31.777262 0.4915776 -32.822647 7
-16.691244 0.58206475 -33.121185 6
-15.986846 0.79157364 -33.15184 7
-15.236774 0.67631483 -33.006027 6.5
-14.835073 0.62458473 -33.178356 7
-14.712306 0.61730421 -33.104816 6.6666665
-9.3362522 0.41146657 -33.187283 6
-6.5920339 0.54254842 -32.860882 8.0059996
-16.832869 0.85911953 -33.153839 7
-16.733397 0.80948472 -33.175678 7
-15.840945 1.0285512 -32.943554 7
-15.359539 1.0020595 -32.915276 7.2624998
-14.954581 0.92345726 -33.0979 7.2623749
-14.721553 1.0197541 -33.054729 7.3391666
-14.172795 1.1241697 -33.049557 7.7870002
-12.430028 0.95335251 -32.940163 8.0155001
-12.188614 1.0725092 -33.118942 7.5075002
-9.4214754 1.0460874 -33.108974 8.3739996
-9.1607456 1.1608574 -33.007561 8.0270004
-7.4312525 1.0053782 -33.188454 7
-7.0606041 1.0292412 -32.909042 7.8600831
-6.3043485 1.0760034 -32.987492 8.0228338
-15.974688 1.4084802 -33.121937 8.0535002
-15.421501 1.3108032 -32.99688 8.0527496
-14.871683 1.4361113 -33.144951 8.0585003
-14.521552 1.3142543 -33.158794 8.0574999
-14.242698 1.4014626 -33.047592 8.0580006
-13.975397 1.2615399 -33.10313 8.2786245
-9.3307629 1.224071 -33.134758 8.059
-8.1523972 1.5163021 -32.955833 8.5
-7.755115 1.5714256 -32.963898 9.0389996
-6.9476752 1.5321105 -33.055565 9.0380001
-6.1142845 1.5307343 -33.036896 8.5699997
-16.164623 1.7695552 -32.864594 8.1079998
-15.831711 1.9680004 -32.90881 9.0185003
-12.919951 1.9334189 -32.97654 9.0500002
-12.635445 1.8659588 -33.175694 9.0439997
-8.8197889 1.8199689 -32.871212 8
-8.5556688 1.8441408 -32.933514 8.3739996
-8.1821203 1.8356128 -32.948494 8.6985826
-7.8149362 1.7551267 -33.005798 8.7753124
-7.3871484 1.718745 -33.00721 8.4778004
-6.9192252 1.754714 -33.004635 8.2560835
-6.5882192 1.8561009 -33.07856 8.8370562
-6.2393088 1.7469889 -33.094448 9.0178337
-5.8205891 1.7329898 -33.118946 8.3955002
-3.7187636 1.8399135 -32.850769 9.1765003
-3.2130458 1.7845283 -33.061264 9.0194998
-2.9704418 1.7229747 -32.847965 9.0030003
-15.780678 2.0578256 -32.842827 8.1035004
-15.476225 2.2105651 -33.055492 9.0585003
-14.251599 2.1652827 -33.10078 8.1049995
-13.673886 2.1775975 -33.08382 10.028
-12.913536 2.200911 -32.959629 8.10425
-8.4583282 2.2214012 -32.803917 8
-8.1175861 2.0406492 -32.859444 8.0504999
-7.7697191 2.2243924 -32.94001 8.9524088
-7.3656106 2.3404686 -33.067314 9.7139997
-6.0157666 2.2638919 -33.172325 10.0415
-5.7960339 2.1337314 -33.103394 8.0965004
-3.8596365 2.1218631 -32.865116 10.0385
-3.3529675 2.0485682 -33.077602 10.038
-8.0097809 2.432153 -32.929062 9
-7.7909808 2.5627198 -32.932129 10.0425
-7.4854517 2.6151638 -33.025162 10.029875
-7.1183548 2.461576 -33.033161 9.5522499
-4.4357157 2.797889 -33.196018 9.0965004
-4.2000675 2.7139854 -33.078453 9.0967503
-8.193222 3.0710917 -33.158714 10.07575
-7.8987646 2.9200249 -33.093407 10.063499
-4.589201 2.9966056 -33.108238 10.5665
-4.0033708 2.8460922 -32.897564 9.0970001
-10.71003 3.4122832 -32.880547 11.0485
-5.0798798 3.2340972 -32.925503 11.0075
-11.898046 3.6481793 -33.173386 11
-10.042734 3.8481371 -32.816147 10.103
-8.0221968 3.8315256 -33.025993 12.0505
-10.073306 4.0006533 -32.85574 12.047
-9.8929491 4.1130891 -32.861526 10.100834
-9.5395346 4.3966503 -33.088028 11.008
-8.9447517 4.2743726 -32.993855 11.351833
-8.2524738 4.1455455 -33.009689 11.07225
-7.8217974 4.2934203 -32.905514 11.294875
-9.4553108 4.510849 -33.030613 12.188084
-8.9554234 4.6663013 -32.943523 12.075251
-8.7055635 4.6842952 -32.956398 12.556625
-8.0829391 4.6015372 -32.834694 11.535501
-7.9609838 4.5424843 -32.963928 13.0505
37.08831 4.6520882 -32.856312 10.0685
38.303017 4.6968861 -32.869801 10.068
-9.2825928 5.1489964 -33.028854 11.1015
-9.0361214 5.0555849 -32.923172 12.7335
-8.7196684 5.1230597 -33.033283 12.545125
-8.2442045 4.8808174 -32.862434 11.1005
36.929985 4.9080453 -33.187077 10.0705
-9.2618208 5.3833656 -33.06559 11.435333
-9.077631 5.5100675 -33.059387 12.862599
-9.3110361 5.7684956 -32.973736 12.700601
-9.0867996 5.7024765 -33.086742 12.599501
-9.2122612 6.0677023 -33.015553 12.102
-9.0465288 6.0069361 -33.044968 14.059
13.342666 -1.2536597 -32.629742 6
-5.0104914 -0.80650544 -32.740112 7
-4.3416681 -0.80432808 -32.530125 7
