# .PCD v0.7 - Point Cloud Data file format
VERSION 0.7
FIELDS x y z intensity
SIZE 4 4 4 4
TYPE F F F F
COUNT 1 1 1 1
WIDTH 1237
HEIGHT 1
VIEWPOINT 0 0 0 1 0 0 0
POINTS 1237
DATA ascii
-18.253939 4.1925416 -8.7161779 12.033333
-17.772301 4.1943464 -8.6692753 12.25
-17.423389 4.1923933 -8.7174511 12.5
-17.115311 4.128829 -8.7279863 12.5
-16.530092 4.3212047 -8.684556 13
-16.125534 4.3781095 -8.7992105 13.101
-14.170289 4.2358227 -8.7865677 13.5
-13.957159 4.0379143 -8.7994766 13
-3.3644185 4.1343803 -8.5556583 15
-3.0257471 4.0961523 -8.5916615 15
-42.580482 4.5453806 -8.5259771 10.06
-42.333641 4.5697708 -8.5830917 10.064
-40.199131 4.7647548 -8.566781 10.139
-39.931767 4.6685724 -8.565608 10.082
-19.891773 4.4445305 -8.7936287 12.0945
-19.232761 4.4892673 -8.5912857 12
-18.881214 4.4196682 -8.5913754 12
-17.38965 4.5084648 -8.6830463 13
-17.012787 4.4267488 -8.6765156 13
-16.385292 4.4415021 -8.6760197 13
-14.29932 4.4198661 -8.7779789 14
-13.695617 4.4129562 -8.7896004 14
-47.610336 4.9889727 -8.537179 9.1014996
-42.378563 4.9341378 -8.6219654 11.052
-41.979954 4.8255439 -8.7874146 10.075
-40.815571 4.8998938 -8.4540625 10.1395
-40.576653 4.8697996 -8.5245571 10.0995
-40.033783 4.8647976 -8.5327959 10.0275
-39.627045 4.8691511 -8.7153597 10.136
-39.393906 5.0690031 -8.5322599 10.711667
-39.025635 5.0416274 -8.6373539 10.347
-38.898872 5.3499737 -8.5914974 10.643687
-39.644154 5.8138742 -8.7898102 11.0605
-38.852249 5.9411526 -8.7338963 11.082
-38.79253 5.9718132 -8.6166649 11
-38.166454 5.8204494 -8.4929543 11.10125
-37.905979 5.9445987 -8.7332592 11.139
-39.464119 6.1826859 -8.5594606 11.134
-38.950535 6.2097254 -8.4534149 11.542
-38.764576 6.0918612 -8.5319138 11
-38.129555 6.147954 -8.6155739 11.0895
-39.528934 6.7824788 -8.7098246 11
-38.842037 6.531302 -8.7662506 12.1345
-38.554127 6.5631394 -8.5756865 11.196251
-38.165569 6.537046 -8.6211281 11.77675
-44.448383 7.0873604 -8.4116001 11.082
-40.964645 7.147872 -8.6402121 12.062
-40.537216 7.4178286 -8.7396765 12.0625
-40.324295 7.3735485 -8.744319 12.0605
-39.836655 7.4771862 -8.4406652 12.0645
-39.351166 7.4706097 -8.6838493 12.048
-38.90641 7.3008127 -8.4247856 12.0755
-40.480316 7.930582 -8.6235752 12.13375
-39.289642 7.6511393 -8.4750071 12.0695
-38.823483 7.9727349 -8.5634003 12
-38.589893 7.7724853 -8.6324043 12.378667
-38.258598 7.9151449 -8.5758133 12.450701
-37.970058 7.9635606 -8.7843351 12
-46.673222 8.3121309 -8.6436253 11.1015
-43.000725 8.1760626 -8.6898117 13.052
-42.726341 8.2133961 -8.6128654 12.0835
-39.993629 8.1024008 -8.5401649 12.089
-38.837608 8.0099392 -8.5964527 13
-38.69215 8.1572418 -8.5467949 12
-38.191692 8.1370592 -8.488452 12.29775
-37.994373 8.1220808 -8.7970057 13
-38.207428 8.606287 -8.566103 13.07
-37.845482 8.5563412 -8.4411993 13.0735
-37.485867 8.6301422 -8.4234753 13.136
-39.509449 9.0975809 -8.5556431 13
-39.027111 9.1077166 -8.44841 13.134
-38.228165 9.0183039 -8.5219183 13.407333
-37.741653 8.9883213 -8.4750233 14
-40.863956 9.3829107 -8.5197372 13.063499
-40.546814 9.422966 -8.6620731 13.10775
-39.446514 9.3203621 -8.6210184 13.074666
-40.954433 9.7321663 -8.7763004 14.046749
-40.496365 9.882163 -8.7910957 14.1345
-39.668758 9.6814919 -8.6180668 14.046
-49.557144 10.000793 -8.53195 12.122
-41.019012 10.27951 -8.6893425 14.0675
-40.60593 10.034947 -8.5685644 13.114
-40.332394 10.190328 -8.7883339 14.06
-39.827877 10.240314 -8.7025375 14.0605
-51.178631 10.654143 -8.4006767 12.0945
-40.684151 10.723495 -8.4027548 14.0645
-40.324783 10.610367 -8.5976572 14.072001
-41.448971 11.067056 -8.7814503 14.0835
-41.16972 11.048801 -8.7167187 14.1375
-40.633648 11.014815 -8.7129679 15.053
-40.223667 10.960238 -8.7005854 14.135
-2.0682399 -1.2378404 -8.1520357 2.5
-1.7724742 -1.2234048 -8.1674223 1.5833334
-1.3811167 -1.2319781 -8.2033663 1.3809524
-0.9609673 -1.2919027 -8.2078695 1.2631578
-0.59194249 -1.3714998 -8.2213764 1.45
-0.19052011 -1.3750275 -8.2537498 1.625
0.21935891 -1.3860714 -8.1917 1.2222222
0.59425789 -1.3819036 -8.1794252 1.2941177
0.97446841 -1.3704064 -8.1664515 1.53125
1.4040458 -1.3880656 -8.1365681 1.375
1.8125384 -1.392601 -8.1695395 1.3157895
2.1945505 -1.4005096 -8.1781893 1.15
2.5677278 -1.3970462 -8.181076 1.45
2.9893298 -1.398857 -8.1452188 1.3333334
3.3107824 -1.371336 -8.2252188 1.3617647
3.6331489 -1.3893518 -8.3549805 4
7.0982399 -1.2755868 -8.2852039 3
7.3743362 -1.2903891 -8.2414904 3
8.2755375 -1.3075505 -8.2065277 3
8.5566196 -1.3131738 -8.2167377 3
8.9096146 -1.3255765 -8.2517519 3
9.8633919 -1.3437126 -8.2173576 3
10.267944 -1.305824 -8.338809 4
11.09573 -1.3196856 -8.2281895 4
11.386011 -1.3297745 -8.2863579 4
11.782084 -1.3455902 -8.1349964 4
12.273061 -1.3303115 -8.2837429 4
13.844002 -1.3290713 -8.2616081 5
14.723133 -1.3413723 -8.0628242 5
14.937714 -1.3733078 -8.2102394 5
15.319847 -1.3535937 -8.1990976 5
20.212532 -1.3037349 -8.1422634 6
20.603333 -1.3766745 -8.145442 6
21.79467 -1.3677723 -8.222683 6
22.304073 -1.3946948 -8.0501633 6
22.680672 -1.4575651 -8.2447119 6
23.740028 -1.4336088 -8.1517363 6
32.699528 -1.2316005 -8.3615875 7
-3.2325156 -0.95832258 -8.1480122 3.1428571
-3.079464 -0.9436717 -8.2081976 2.6991343
-2.612262 -1.0688941 -8.2191477 1.9090909
-2.2300093 -1.109032 -8.2178602 1.4285715
-1.4269509 -1.1968057 -8.176343 3
0.8649531 -0.84765434 -8.2463417 2.5
1.4655793 -1.0494931 -8.0040483 0.66666669
3.2938843 -0.93166721 -8.1968594 1.9666667
25.255028 -0.81449562 -8.3537807 7
32.758411 -1.1504115 -8.3404531 7
-3.2594059 -0.60082406 -8.1826572 3.6822917
-3.1369455 -0.61030561 -8.2059879 4.1850767
1.0294892 -0.60918683 -8.2722015 3.3
3.3108203 -0.55856192 -8.1685286 3.3501816
3.7058804 -0.40922976 -8.3025408 5
4.6975641 -0.43183854 -8.3249359 3.8333333
4.9158344 -0.438007 -8.3310614 3.75
-3.2372797 -0.141159 -8.1463985 5.9545455
-3.1311021 -0.20132956 -8.2001657 5.8983178
1.0887409 -0.17094073 -8.1983795 5.4000001
1.2496872 -0.28718203 -8.350975 4.6666665
3.4706063 -0.33805403 -8.1242361 3.8095238
3.7361293 -0.36577141 -8.3020973 2.9444444
4.2903814 -0.23748417 -8.2081175 4.2916665
4.6907125 -0.31043568 -8.2015438 4.8125
4.9108105 -0.32091847 -8.156867 4.8793101
-3.2697995 0.22652856 -8.1745558 7.5714288
-3.1246765 0.19714451 -8.2123604 7.5079045
1.2779536 0.010282472 -8.3096123 6.3333335
-3.2866318 0.56552637 -8.1553745 9.3000002
-3.1227269 0.59334248 -8.212595 9.1965275
-3.2962267 0.92658049 -8.1642742 9.7142859
-3.1192534 0.99118876 -8.1978264 10.869621
-32.810795 1.2761554 -8.0042582 8.0640001
-32.567116 1.4531471 -8.3234968 8.1344995
-3.3044245 1.4110018 -8.173789 10.388888
-3.1047363 1.3783463 -8.2076387 12.091735
-3.2785664 1.8552699 -8.1613464 11
-3.1044016 1.7724656 -8.2169228 13.124087
-53.019508 2.3927627 -8.275651 8.1389999
-45.799164 2.1668839 -8.0753641 8.1359997
-3.3136196 2.1809959 -8.1534986 11.666667
-3.0979218 2.1723785 -8.1931248 13.70918
-44.67638 2.5276892 -8.2084932 8.4436665
-7.3737984 2.7934933 -8.0766449 14.12675
-3.2857234 2.6445351 -8.2020435 12.6
-3.0689986 2.5813577 -8.1984024 13.956803
-44.602356 3.0748775 -8.1507044 8.1020002
-13.679014 3.1291847 -8.0797281 12.129
-11.577847 3.0991542 -8.1867847 12.125375
-7.6844139 2.8052955 -8.0988884 14.128
-7.3626451 2.8828716 -8.1789513 14.107893
-3.4018126 2.9997861 -8.1648836 13
-3.0536427 3.0327957 -8.1620159 14.137255
-45.793617 3.3634884 -8.1053867 9.0615005
-45.379307 3.5613208 -8.097415 9.0620003
-44.386723 3.5747693 -8.2213554 9.1389999
-42.662457 3.5861406 -8.1445484 9.0649996
-11.603363 3.4602242 -8.1349287 12.1185
-11.558731 3.2791028 -8.2369223 13.128749
-9.407567 3.2655282 -8.1524105 14.353
-3.306386 3.4278102 -8.1577778 14
-3.0328169 3.3602271 -8.1522589 14.444445
-44.835205 3.6762698 -8.0969791 9.1394997
-42.260792 3.9382889 -8.3057842 9.0889997
-3.2309251 3.7959175 -8.1894913 15
-3.0679932 3.746202 -8.208847 14.557409
-42.549034 4.2683277 -8.2966547 10.061501
-42.295975 4.2391949 -8.0157928 9.0955
-39.829098 4.2253761 -8.163475 9.1025
-3.3523316 4.032299 -8.1991367 15
-3.0069845 4.1396084 -8.1039476 15
-47.746609 4.5946112 -8.1675739 9.0500002
-42.308151 4.7744365 -8.3098001 10.0645
-40.03363 4.7723265 -8.140707 10.1385
-37.896423 4.5899892 -8.156929 10
-44.405209 4.982831 -8.0059786 10.1365
-42.116043 5.0105147 -8.1201954 10.106625
-41.932476 4.8182273 -8.0871849 10.138
-41.311794 4.802783 -8.1945934 10.0715
-40.035885 4.8672881 -8.1840172 10.134
-39.220737 5.1561718 -8.1021881 11
-38.747265 4.9835062 -8.1379633 10.33725
-38.99482 5.3728848 -8.2346087 10.3035
-38.750477 5.3150406 -8.2680435 10.354167
-40.101624 5.7376709 -8.0708313 11.0605
-39.742844 5.8455625 -8.067956 11.061
-38.666313 5.9252458 -8.0682344 11.0825
-40.091915 6.0628047 -8.2777996 11.0755
-39.899475 6.2473783 -8.3446445 11.0715
-39.061306 6.2277169 -8.1929045 11.372334
-38.503899 6.2339606 -8.1686573 11.75
-38.19981 6.2418628 -8.2186604 11.114599
-37.859394 6.2416158 -8.2795238 11
-41.402245 6.7934465 -8.2976856 11.1305
-39.012005 6.7488222 -8.3533831 11
-38.506386 6.5580101 -8.177165 11.333333
-38.023232 6.5884628 -8.3405132 11
-37.970055 6.5814242 -8.2084036 11
-39.642979 7.029213 -8.1184521 12.061501
-39.142441 7.1851392 -8.1694546 12.061
-37.339611 7.0772891 -8.3416166 12.0625
-40.19516 7.2273102 -8.0766525 11.1025
-39.60791 7.5672154 -8.2132034 12.138
-39.584446 7.4716206 -8.3160133 12.1365
-38.852737 7.308774 -8.2137089 12.072001
-38.309666 7.5844536 -8.3489943 12.134
-37.715389 7.5575066 -8.0497923 13
-37.447502 7.2836685 -8.0151043 12.1395
-40.905724 7.9291434 -8.2581272 12.0715
-40.442059 7.9654222 -8.2512388 12.0825
-40.019276 7.8406615 -8.1140385 12.1355
-39.869877 7.6949964 -8.2725849 12.1355
-39.43346 7.6575046 -8.178092 12.074166
-38.617817 7.8526893 -8.2409105 12.6359
-38.187176 7.8813152 -8.2577305 12.05725
-38.807339 8.008193 -8.3883486 13
-38.63364 8.2303572 -8.2871046 12.740001
-38.121281 8.0733156 -8.2574272 12.354167
-39.229645 8.7730455 -8.3701353 13.0615
-38.155109 8.5678759 -8.236721 13.068667
-37.481964 8.6364059 -8.3766651 13.138
-39.683975 9.0572395 -8.3500538 13.0715
-38.234619 8.9556332 -8.2433977 13.266701
-37.779015 8.9741535 -8.2046251 13.554625
-40.518578 9.3983545 -8.3152351 13.0715
-40.246532 9.3652697 -8.3572865 13.139
-39.700867 9.841094 -8.2223892 13.731416
-39.424934 9.6708384 -8.130249 14.135
-49.134945 10.171457 -8.2042933 12.1135
-40.294312 10.010877 -8.1764956 13.0885
-39.759808 10.207644 -8.2024431 13.746166
-49.593689 10.65083 -8.2347431 12.1015
-41.11842 10.725849 -8.1649408 14.0615
-40.342224 10.777679 -8.1320753 15.0525
-39.337074 10.765888 -8.003149 14.1355
-40.227135 10.940513 -8.3447571 14.134
-41.452446 11.247057 -8.1618052 14.139
-2.0293245 -1.2158935 -7.8226566 2
-1.7397097 -1.2189138 -7.7792926 1.4166666
-1.4326664 -1.233372 -7.7461834 1.032258
-0.97988629 -1.2777761 -7.776382 1.4102564
-0.61470068 -1.3727647 -7.8262858 1.3448275
-0.22968638 -1.3827159 -7.7899513 1.2173913
0.17288847 -1.3850302 -7.8072205 1
0.57475066 -1.3904176 -7.8255944 1.3684211
1.0005381 -1.3975533 -7.8236122 1.4
1.4067655 -1.3991365 -7.7846107 1.1875
1.7837472 -1.4046694 -7.8065467 1.2222222
2.2077427 -1.3989862 -7.7781677 1.2941177
2.6264229 -1.4085854 -7.8141847 1.1578947
3.0025747 -1.4113109 -7.8064489 1.0952381
3.3621566 -1.3792228 -7.8722482 1.3958334
3.6933784 -1.4010963 -7.8115659 2.5
7.7418728 -1.3363584 -7.7903895 3.6666667
8.6544609 -1.3165507 -7.7205682 3
9.0523005 -1.3245177 -7.8795891 3
9.6776781 -1.3373318 -7.6478367 3
10.046721 -1.4034044 -7.8853903 3
11.193248 -1.3208266 -7.9750829 4
11.447258 -1.3376256 -7.7581887 4
11.821264 -1.3551509 -7.6655865 4
12.352657 -1.3108373 -7.9778843 4
12.431122 -1.3191513 -7.6696663 4
12.90413 -1.4012783 -7.7957287 5
13.928243 -1.3334816 -7.9120216 5
14.012657 -1.3654869 -7.7305608 5
14.672527 -1.3609526 -7.7904034 5
15.035505 -1.3908707 -7.7773147 5
15.376656 -1.3566457 -7.8452392 5
16.716867 -1.3095988 -7.8784552 5
20.277813 -1.3426924 -7.7137218 6
20.590017 -1.379956 -7.815917 6
21.466084 -1.3873178 -7.6562157 6
21.625092 -1.3852853 -7.9856539 6
22.265265 -1.3333613 -7.7170506 6
22.470201 -1.4658831 -7.6289015 6
22.809156 -1.4592496 -7.8514919 6
23.782717 -1.4361193 -7.7378645 6
31.144867 -1.3781761 -7.990706 7
32.270161 -1.2354001 -7.844676 7
-3.2496169 -0.9064424 -7.8334332 2.7777777
-3.0866697 -0.94012469 -7.8234758 2.7301357
-2.5992205 -1.0750513 -7.8168001 2.1153846
-2.1815548 -1.1256506 -7.8253722 1.421875
-1.8787918 -1.1920111 -7.9625258 3
-0.95072079 -1.1850234 -7.6334014 4
0.17709023 -0.97869462 -7.8609619 5
3.2915618 -1.0004232 -7.9026346 1.9166667
25.500954 -0.88557112 -7.7679095 7
25.950434 -0.87221152 -7.7249098 7
26.01969 -0.87306637 -7.6912937 7
26.64753 -0.93149328 -7.8222828 7
32.246113 -1.1511052 -7.8243356 7
32.532406 -1.0857598 -7.8764501 7
33.148678 -1.1487186 -7.9910431 7
35.000278 -1.1347828 -7.8664799 7
41.376015 -1.1286488 -7.735383 7
-3.2406242 -0.60871357 -7.8005748 3.5646827
-3.1364419 -0.58093739 -7.8242106 4.3933172
0.36768872 -0.52985746 -7.6387424 6
1.5152056 -0.66566825 -7.9334269 2.75
2.0605295 -0.68886644 -7.6541157 3
3.1128898 -0.58226138 -7.8584042 4
3.3105252 -0.54307145 -7.8325577 3.4069107
-3.2349551 -0.15929465 -7.8078647 5.7708335
-3.1324275 -0.18580313 -7.7949138 5.9896703
0.392685 -0.098643757 -7.6365948 7
1.349301 -0.2962662 -7.7886453 4.75
1.6166482 -0.32445371 -7.9052801 4.5999999
3.13416 -0.36953741 -7.9311361 4
3.4311039 -0.27292991 -7.8791547 3.9224005
3.7217453 -0.10877866 -7.7472606 5.8384037
4.2216225 -0.067361258 -7.7714763 7.3492932
4.635479 -0.096674599 -7.7673264 7.3686528
4.8522124 -0.18734787 -7.8521085 6
-3.2538698 0.18812436 -7.8313923 7.3333335
-3.1270473 0.18167511 -7.8040271 7.4778013
1.5065001 0.017375097 -7.8607626 6.416667
-3.2590113 0.58954 -7.7591586 9.0694447
-3.1183324 0.58003718 -7.8150301 9.0320749
-3.2924945 0.93899858 -7.7942224 10.08
-3.1140852 0.99404329 -7.8195038 10.971124
-32.662121 1.3276942 -7.8449016 8.1370001
-3.3033657 1.3664044 -7.7765694 10.3125
-3.10534 1.3681966 -7.8122864 12.180288
-3.3177109 1.831176 -7.7769709 11
-3.1007764 1.7559521 -7.8201084 13.165485
-3.2444482 2.2512832 -7.8168588 12
-3.0912731 2.1701274 -7.8088965 13.830506
-44.522255 2.5443194 -7.9411511 8.0889997
-7.5124846 2.7931879 -7.7398605 14.12775
-3.3432217 2.5948944 -7.8715072 12.5
-3.0655861 2.5672822 -7.7884231 14.008883
-50.043026 2.833878 -7.8698044 9.0459995
-44.577629 2.8467591 -7.6385922 8.0955
-11.565762 3.1628714 -7.6587305 13.0665
-9.4629021 3.1573389 -7.7614827 14.131749
-7.6386814 2.8084667 -7.654026 14.1265
-7.4356127 2.9164376 -7.8645058 14.62775
-3.3148129 2.9886863 -7.7490182 13.333333
-3.0501163 3.0113087 -7.7804918 13.955325
-45.645554 3.4587884 -7.969409 9.0644999
-44.389069 3.5217841 -7.6854687 9.0714998
-11.564341 3.2988691 -7.841712 12.624437
-9.4836464 3.2796507 -7.7525544 13.237812
-3.3130128 3.3460152 -7.8446507 14
-3.0479929 3.3555028 -7.8310013 14.292771
-49.835094 3.9239032 -7.7012897 9.1355
-46.66605 3.844161 -7.9978018 9.1355
-45.374992 3.6448991 -7.7175856 9.1082497
-44.62162 3.6481161 -7.7904396 9.0714998
-42.877094 3.7617912 -7.8096972 10.0515
-42.685326 3.7954245 -7.9921341 10.043
-42.226532 3.9258208 -7.7005568 10.135
-3.277066 3.7932792 -7.7663817 15
-3.0418458 3.722903 -7.820199 14.652562
-45.368813 4.0119138 -7.8621855 9.1304998
-42.345585 4.0951772 -7.6465979 9.1145
-41.093506 4.3385859 -7.9050565 9.5837498
-37.967243 4.3382797 -7.7688866 10
-3.0155747 4.1251674 -7.854773 15.019
-47.845829 4.5979781 -7.6005144 9.1140003
-41.252438 4.5549941 -7.8078713 10.062167
-38.202965 4.5231099 -7.7166462 10.07725
-37.8517 4.5614729 -7.8288789 10.0447
-37.326569 4.6997542 -7.6901946 11
-44.349213 5.0218177 -7.6230726 10.0615
-42.145493 5.0629601 -7.6682234 10.078
-41.751446 4.9031196 -7.6427832 10.1395
-40.006519 5.1938467 -7.9282274 10.0895
-39.772617 4.9450264 -7.7694969 10.083
-39.4324 4.9758468 -7.8231759 10.666667
-39.049717 4.9991751 -7.7520628 10.1235
-38.47578 4.8718815 -7.6273584 11.0435
-42.835617 5.3287067 -7.8262262 11.0515
-42.699245 5.3674374 -7.9983206 11.043
-41.184753 5.4018383 -7.6986604 11.0465
-39.289768 5.4765525 -7.7556815 11.042
-38.668034 5.352613 -7.7319846 10.064
-37.333679 5.5189133 -7.7404962 11.0625
-40.719135 5.8076921 -7.9944248 10.1025
-37.309422 5.656889 -7.8918414 11.047
-37.087353 5.7298937 -7.828393 11.089001
-40.137299 6.2407174 -7.7658806 11.1395
-38.943836 6.1092086 -7.7653766 11.070666
-38.502922 6.1948051 -7.8221259 11.327286
-38.411541 6.6330318 -7.8492861 12.032249
-38.256908 6.6150513 -7.7523789 11.53075
-37.779339 6.6111469 -7.7420244 11.583875
-41.063232 6.9025984 -7.9053912 12.135
-40.278194 6.9031587 -7.9327536 11.1145
-38.351776 6.819757 -7.9077358 12
-37.849754 6.9661355 -7.7657871 12.068501
-37.389206 7.0775824 -7.8144426 12.0685
-37.10228 6.9906526 -7.889298 12.099501
-38.808861 7.3125477 -7.8282614 12.065
-37.614574 7.4599724 -7.7803025 12
-37.408867 7.2869306 -7.8303318 12.090125
-37.106495 7.2521434 -7.845284 12.096499
-39.274841 7.7246995 -7.9826651 12.0655
-38.82822 7.8425331 -7.6721516 12.56175
-38.696735 7.7701173 -7.9105277 12.442801
-42.930859 8.3711452 -7.9154429 12.1395
-42.225937 8.0247145 -7.9206581 12.0715
-38.564461 8.1470947 -7.763979 12.537625
-37.620457 8.2167463 -7.79214 12.103
-39.110477 8.4501143 -7.9638691 12.0995
-38.608471 8.6220856 -7.6729903 13.06275
-38.150127 8.682085 -7.7851624 13.0977
-38.210907 9.0168095 -7.7806168 13.694833
-37.827404 8.8169785 -7.9058208 13.1395
-40.537823 9.5574932 -7.9767575 13.134
-40.134964 9.3368101 -7.6136189 13.072
-41.288567 9.9734259 -7.9570456 13.123
-40.541115 9.7441416 -7.7113357 13.0895
-40.007553 9.8905077 -7.6420717 13.0505
-39.752842 9.7775173 -7.7316666 13.725334
-39.387474 9.9939022 -7.9102526 13.0995
-41.285587 10.227211 -7.861474 13.0955
-39.540791 10.358873 -7.6408882 14.062
-40.999588 10.611048 -7.9699354 14.063
-40.534698 10.445005 -7.8985481 14.061
-39.66861 10.474188 -7.8364034 14.07375
-38.971939 10.610243 -7.7776852 14.077499
-42.495354 11.275375 -7.9296994 14.104
-42.222748 11.320195 -7.8556342 14.119166
-39.39764 11.274739 -7.6884441 14.0505
53.935616 -1.8320094 -7.394659 7
-2.0942781 -1.2259216 -7.3927417 1.9166666
-1.770012 -1.2352703 -7.3353958 1.7272727
-1.3794414 -1.2342218 -7.4212346 1.4615384
-0.96316218 -1.291055 -7.3991485 1.0526316
-0.62615389 -1.3867408 -7.4076357 1.0714285
-0.20592447 -1.3955171 -7.2962084 1.4
0.19472405 -1.388276 -7.3576808 0.9375
0.60788953 -1.3911312 -7.4196391 1.2666667
1.0039196 -1.3969344 -7.3899865 1.3333334
1.4050044 -1.4033557 -7.3650417 1.375
1.7936132 -1.3958312 -7.3882957 1.3730159
2.2007782 -1.4133252 -7.3904486 1.2
2.5957143 -1.4166116 -7.4463301 1.1428572
3.0104752 -1.4141108 -7.4055433 1.8421053
3.3826001 -1.4166691 -7.4097619 1.88
3.7174919 -1.4191965 -7.3898115 2.5999999
4.6401734 -1.3571802 -7.4343553 4
5.000062 -1.3678901 -7.457324 4
6.8616376 -1.3316176 -7.2921476 3
7.3377118 -1.3212163 -7.3067465 2
7.6816339 -1.3298353 -7.3506455 2
8.9763508 -1.3414112 -7.3348093 3
9.3448372 -1.3338329 -7.4849849 3
9.8129635 -1.4019843 -7.372705 3
10.925846 -1.5626388 -7.3219366 3
11.458835 -1.3446599 -7.3740563 4
11.815034 -1.3668078 -7.3823562 4
12.027984 -1.4320718 -7.4630737 4
12.960833 -1.408681 -7.2014732 5
14.046419 -1.3406936 -7.373168 5
14.590925 -1.3505703 -7.3908486 5
15.071893 -1.425956 -7.3996086 5
15.220306 -1.3710805 -7.5221157 5
16.745129 -1.3088019 -7.5987711 5
16.808233 -1.3115693 -7.3153639 5
20.228828 -1.3473274 -7.2885456 6
20.561567 -1.3601726 -7.467905 6
22.577766 -1.4695444 -7.2440329 6
23.016479 -1.4667072 -7.4522705 6
-3.2201281 -0.93640995 -7.3884344 2.75
-3.0762608 -0.94973797 -7.4096165 2.7910256
-2.6235039 -1.0804893 -7.4235792 2.2
-2.18344 -1.1279715 -7.4372954 1.3823529
-1.1714271 -1.175895 -7.5399003 4
0.47777659 -0.95598906 -7.5584908 5
1.7621367 -0.87355745 -7.3461533 2.3333335
3.0533814 -0.9505825 -7.4881392 4.5
3.274931 -0.88254732 -7.3705573 1.5833334
23.964752 -1.1612705 -7.2987146 6
24.786406 -0.9672423 -7.2235832 7
24.923231 -0.92207038 -7.3274488 7
25.445097 -0.92122781 -7.445817 6.5
25.91765 -0.90065175 -7.4973674 7
26.023708 -0.83821279 -7.5472927 7
26.580507 -0.88950861 -7.3709097 7
27.027426 -0.90359896 -7.453361 7
27.409824 -0.86112106 -7.3869362 7
32.336201 -1.0759778 -7.529047 7
35.049068 -1.1019609 -7.3289156 7
-3.2541928 -0.61676955 -7.4336786 3.9820514
-3.1320868 -0.59290612 -7.4085646 4.2973242
1.3733349 -0.4189803 -7.5074835 4.6666665
1.8036575 -0.53421104 -7.4645009 3.9166667
3.0213759 -0.7879076 -7.5445752 5
3.3175271 -0.59854913 -7.3994288 2.3756492
4.5115361 -0.57084894 -7.2311039 2.3333333
24.934944 -0.78424847 -7.531229 7
-3.2454782 -0.16320321 -7.3907561 6.0474997
-3.1256485 -0.18117292 -7.4041061 6.0688429
1.5713345 -0.22838655 -7.3630204 5.5
1.7606952 -0.04883451 -7.4475651 6.416667
3.1667783 -0.081266485 -7.4990053 6
3.5314784 -0.19250579 -7.4039483 6.4107227
3.7409232 -0.06109288 -7.4463534 6.5928979
4.3286448 -0.025068238 -7.4547348 8.0174999
4.6738501 -0.027824808 -7.4585595 8.0120001
4.8353462 -0.36382097 -7.2281609 6
-3.2539287 0.20338529 -7.3791656 7.4583335
-3.1189854 0.20542668 -7.3989916 7.5958982
1.7049042 0.26106626 -7.3405061 8
3.8989975 0.011993182 -7.3518219 7.8465629
4.1749349 0.027027603 -7.3805366 7.5866427
4.5632291 0.0044478076 -7.4191437 7.6174498
-3.2744596 0.60185283 -7.3565712 8.5625
-3.1141646 0.59193742 -7.3940887 9.1482639
-3.2697108 1.0844468 -7.2828884 10.516687
-3.1114426 0.99548656 -7.3930473 10.746573
-3.2651896 1.3689215 -7.2933741 11.324287
-3.1075721 1.3919864 -7.3851504 12.140966
-3.2536016 1.754402 -7.3008718 12.376589
-3.1043339 1.7549953 -7.3812332 13.297895
-3.3022099 2.272603 -7.3800654 12
-3.0881491 2.1639128 -7.3938384 13.934747
-49.903671 2.5779521 -7.4181137 9.0430002
-7.5982056 2.7894487 -7.4796963 14.1285
-3.2386763 2.713098 -7.4873648 13
-3.0725236 2.5422428 -7.389185 14.06609
-69.042679 2.9102261 -7.5694914 9.052
-11.5529 3.1473279 -7.31848 12.9039
-9.468132 3.1460636 -7.3874855 13.702899
-7.3421774 2.969543 -7.3640318 14.971892
-3.3243015 2.966815 -7.3304572 13.5
-3.0374799 2.9857857 -7.3962808 14.043399
-45.033638 3.4804265 -7.4990225 9.0614996
-44.538265 3.4226825 -7.3895912 9.0871668
-44.351604 3.5355718 -7.410358 9.1394997
-11.559349 3.2362251 -7.5475702 12.624125
-9.4655867 3.2562344 -7.3005571 13.5037
-3.2911408 3.3820655 -7.343708 14.333333
-3.0340703 3.4494958 -7.3853974 14.350906
-45.574558 3.6798582 -7.5084014 9.1385002
-44.647964 3.6727715 -7.4338269 9.1370001
-3.3195331 3.7755418 -7.2993803 15
-3.0156007 3.8890519 -7.3525577 15
-47.070072 4.1709824 -7.4094243 9.1027508
-45.398674 4.2551689 -7.3409519 10.0465
-42.226921 4.2373104 -7.2551327 9.0959997
-41.097858 4.2980013 -7.5606585 10.0645
-39.779175 4.0360155 -7.3118944 10.063
-38.200375 4.2659726 -7.55548 10.0615
-37.855949 4.3492355 -7.2964115 10
-26.584358 4.3486633 -7.2614665 11.081
-3.0142548 4.0299101 -7.4841328 15.028625
-47.625393 4.6306195 -7.4469566 9.0885
-47.16415 4.6298137 -7.2670536 9.0955
-41.267044 4.6778426 -7.4568834 10.137751
-41.114918 4.6912594 -7.2901821 10.062
-38.255924 4.5871725 -7.376699 10.103001
-37.752975 4.4434571 -7.37603 10.0311
-37.360622 4.6133385 -7.359273 10.2312
-37.049114 4.530179 -7.2717237 10
-42.180763 5.0650244 -7.4862885 10.102751
-41.804638 4.871263 -7.3388062 10.072
-37.163628 5.0737338 -7.3027124 11.062
-45.864731 5.2605925 -7.5952969 10.0755
-39.235107 5.4127598 -7.4976621 10.5575
-39.023605 5.3074169 -7.450335 10.048
-38.529133 5.2953491 -7.4865227 10
-37.552887 5.2794166 -7.3044901 11.065
-37.105839 5.2002683 -7.2464848 11
-39.741592 5.6598434 -7.3685093 10.743167
-37.802799 5.8135343 -7.361145 11
-37.339386 5.7519779 -7.3612356 11.026563
-37.079578 5.7641692 -7.2509093 11.0281
-38.903332 6.1979198 -7.5785689 11.1345
-38.556511 6.1886249 -7.3808341 11.2817
-38.042931 6.2463117 -7.3377995 11.1315
-37.361919 6.0989547 -7.4667435 12
-38.276558 6.5689306 -7.4241419 11.263
-37.74324 6.6329198 -7.3752861 11.55675
-39.364368 7.0964966 -7.4671984 11.103
-37.536522 7.1224165 -7.5328517 12.0415
-36.982716 7.0611315 -7.2935266 12
-38.009842 7.3044615 -7.3368406 12
-37.65509 7.3407049 -7.3744669 12.0555
-37.35215 7.3636756 -7.3999834 12.322286
-37.12273 7.3680835 -7.3618941 12.379001
-39.364166 7.7703419 -7.4546762 12.1345
-38.636803 7.9478979 -7.480237 12.0835
-40.019863 8.3761292 -7.2069616 12.115
-39.805847 8.2618446 -7.4097099 13.045166
-38.412411 8.1016283 -7.5332127 12.096
-38.010418 8.0474606 -7.5497866 12
-40.48003 8.6355829 -7.2240248 13.063
-40.391731 8.6589947 -7.3089409 13.0685
-39.88884 8.4775991 -7.5523977 13.0645
-38.205017 8.7296715 -7.3820224 13.0415
-37.240047 8.7293606 -7.2699699 13
-39.554058 9.1787519 -7.3951464 13.0785
-38.121128 8.9886751 -7.5012932 13.415166
-37.658802 9.0006123 -7.3255715 14
-40.072933 9.3761587 -7.4245043 13.14
-39.523727 9.2344818 -7.2798858 13.139
-38.072235 9.3469009 -7.3152962 14.047
-41.962505 9.954917 -7.2022114 14.052
-40.020348 9.8411655 -7.3559713 14.1355
-39.867329 9.7758522 -7.4233232 13.567875
-39.499908 9.8301411 -7.4587421 13.0925
-38.438717 9.6740332 -7.571106 14.0685
-37.837128 9.7130308 -7.4954128 13.58075
-40.458469 10.258958 -7.3306284 14.061
-40.385029 10.331594 -7.2442312 13.103
-39.749863 10.16991 -7.3993001 14.06325
-40.259247 10.752735 -7.5216656 14.072
-39.80307 10.559562 -7.5629139 14.08025
-39.274639 10.532159 -7.4228024 14.137166
-38.985271 10.60561 -7.5031648 14.10925
-39.601109 10.801116 -7.2570992 14.136
-39.31776 11.076054 -7.4887466 14.783875
-42.03894 11.375351 -7.313714 14.1395
-39.741463 11.412934 -7.3249898 14.096
-2.4354677 -1.2836733 -6.8929906 4
-2.0889809 -1.2122431 -6.9525385 2.5
-1.7788974 -1.2371696 -7.0348458 1.6666666
-1.3879565 -1.2389356 -6.9884706 1.6521739
-0.95602185 -1.2961191 -6.9901171 1.893617
-0.60267383 -1.3798441 -7.0106282 1.4
-0.19970566 -1.3814987 -6.9976735 1.48
0.19806337 -1.3983513 -7.0229745 0.79166669
0.57391852 -1.3999087 -7.0285735 1.173913
0.97614342 -1.402804 -7.0137882 1
1.397918 -1.4020995 -7.0119915 1.173913
1.8175479 -1.4170315 -6.9841595 1.2272727
2.1916566 -1.415998 -6.9869237 1.5882353
2.5843198 -1.4206263 -6.9997106 1.6363636
2.9971204 -1.4274205 -7.022222 1.55
3.362973 -1.4290116 -6.9903054 1.5797102
3.6594787 -1.438664 -6.9843917 1.2
4.1663251 -1.4425944 -7.0568213 3.6666667
4.6652336 -1.4142876 -7.0933828 4
5.0282822 -1.4335546 -7.1431961 4
6.5127068 -1.309639 -7.0056224 2
7.0816121 -1.3134595 -7.1421967 2
7.379283 -1.3218763 -7.0171194 2
7.8426514 -1.3353078 -7.0980339 2
8.0437117 -1.3323554 -7.1251068 2
8.4596548 -1.3471541 -6.8882599 2
9.4580975 -1.3631432 -7.0122519 3
9.831481 -1.3707176 -6.9508376 3
11.452913 -1.3544326 -6.9850402 4
11.761715 -1.3552856 -6.9786396 4
12.052489 -1.3571669 -7.0077095 4
12.992209 -1.4138132 -6.8703504 5
14.242201 -1.3757672 -6.9813137 5
14.467616 -1.3681841 -6.9789028 5
15.074913 -1.4079031 -7.0878949 5
16.836618 -1.311601 -7.0335536 5
18.146572 -1.4424325 -7.1913528 6
19.99651 -1.3807563 -7.1830897 6
20.135094 -1.3516467 -6.9799819 6
20.586758 -1.3370867 -7.0303202 6
20.9867 -1.3969572 -6.9461279 6
21.350271 -1.3693312 -7.0965409 6
22.682034 -1.4732181 -6.8507996 6
23.362299 -1.4508845 -6.9631095 6
23.990053 -1.3007432 -6.8062201 7
24.67651 -1.2519423 -6.999155 6
29.602036 -1.3929642 -6.978157 7
-3.3329749 -0.93908495 -7.1330261 4
-3.0711734 -0.97309166 -7.0218081 2.6770322
-2.6015928 -1.0818471 -7.029057 2.1363637
-2.1943064 -1.1299016 -7.0483408 1.4444444
1.8570582 -0.95288032 -6.9706998 2.5
3.2822611 -0.94124717 -6.990129 1.1363636
23.564749 -1.1505592 -6.8725939 6
24.213614 -0.95530087 -6.8871503 7
24.584185 -0.9429999 -6.9939246 7
25.008591 -0.997473 -6.9625964 7
25.531013 -0.88447505 -7.0819588 7
26.012865 -0.84904611 -7.1210036 7
26.946051 -0.90113044 -6.9902654 7
27.4524 -0.82748109 -6.9086466 7
32.260338 -1.1403624 -7.1106901 7
32.448627 -1.0801438 -7.1986485 7
33.220676 -1.1007783 -6.92453 7
42.551357 -1.1619076 -6.9664927 7
-3.246572 -0.66383851 -7.0012383 3.3224998
-3.1305914 -0.61341053 -7.0021935 4.4362831
1.9626154 -0.51507854 -7.0089769 4.5999999
2.906291 -0.69359529 -7.0095749 5
3.3300691 -0.60127532 -7.0098157 2.2875457
3.9341111 -0.54196924 -7.0995188 0.85714287
4.1629119 -0.54464322 -7.1470199 1.5
4.6774435 -0.54103673 -7.123785 3.1111112
4.8334851 -0.483233 -7.1664343 3.75
24.885719 -0.77336806 -7.1119356 7
-3.2296238 -0.25113091 -6.9506364 4.8236609
-3.1267235 -0.19213396 -7.0082736 6.0588651
1.972422 -0.10346945 -7.0199203 6.5999999
3.5309 -0.23149453 -7.0346203 5.0570145
3.7319021 -0.22332041 -7.0676932 4.8841982
4.6072931 -0.31248981 -7.0143757 5.6474361
4.870522 -0.33424231 -7.0880299 5.818182
-3.2624936 0.08608897 -6.9965219 6.8000002
-3.1137497 0.19229148 -6.9991145 7.66505
1.9971212 0.18207027 -6.9507871 8
3.5774264 0.01821059 -6.9743032 6
3.8005378 0.015473198 -6.9793339 8.03125
4.1223474 0.034846697 -6.997313 8.0443335
-3.2822788 0.53625846 -7.0010271 9.0394287
-3.1118605 0.5915243 -7.0001497 9.1246881
-3.3139818 1.0750586 -6.9889755 11.549758
-3.1144109 0.91470414 -7.0154061 10.49826
-3.3109517 1.3631009 -7.0749998 12.035497
-3.1436863 1.364283 -7.1546898 11.891459
-3.3051493 1.7621921 -7.0245004 12.740884
-3.1126459 1.8757092 -7.0235748 13.396659
-54.761391 2.2910819 -6.8942289 8.0620003
-50.128311 2.2930741 -6.8604832 8.1339998
-49.9566 2.2010441 -7.0371366 8.1102505
-3.2630615 2.1515598 -6.9621301 12
-3.0756049 2.1649797 -7.0201755 13.822026
-50.102795 2.745729 -7.0639367 9.1350002
-3.2822108 2.6796975 -7.035265 13
-3.0741088 2.5680819 -6.9975591 14.355632
-68.894943 3.0712166 -6.9684734 8.1355
-49.811855 3.0720251 -6.9246244 8.0955
-45.489033 3.1264572 -7.1972561 8.1025
-11.551482 3.1272593 -6.9513125 12.773708
-9.4531841 3.1157115 -7.0117135 13.690907
-7.3311033 2.9149227 -6.9807353 14.957214
-3.2283573 3.1075954 -7.0202293 14
-3.0544629 2.9643443 -6.9861636 13.993124
-44.376785 3.5903921 -7.1011219 9.0825005
-38.876495 3.2693317 -6.952651 9.0424995
-11.54283 3.2259037 -6.9530497 13.1315
-9.4640875 3.2083933 -7.0074754 13.458333
-3.4037533 3.2483935 -6.9473052 14
-3.056443 3.3963492 -6.9431973 14.444209
-46.225197 3.8542197 -6.9900112 9.0780001
-41.012745 3.9665766 -7.1153288 9.1149998
-37.918758 3.8997335 -6.9356012 10
-3.3060737 3.6738827 -6.9416275 15
-3.011606 3.7853086 -6.9801292 15.019166
-47.845131 4.3568034 -7.0314798 9.0830002
-45.353046 4.0180178 -6.9522991 10.0435
-44.414791 4.3786511 -6.8010316 9.0959997
-41.661285 4.3855624 -7.0316129 9.1000004
-39.646584 4.1530972 -7.0259504 10.065
-37.824501 4.2590532 -7.0003376 10.043562
-37.572731 4.2772422 -6.9376054 10.0124
-45.492599 4.4394107 -6.8848352 9.0889997
-45.107132 4.5227056 -7.1719475 10.0625
-41.774063 4.4492602 -7.1205983 10.06475
-38.047863 4.5907249 -7.0260086 10
-37.767448 4.4509101 -7.0459299 10.0273
-37.302013 4.5720286 -7.0570641 10.022
-37.184517 4.5871506 -7.0269318 10.028
-26.482517 4.4241581 -7.1562338 11.0685
-41.947083 5.0644984 -7.1333456 10.1345
-40.76292 5.1153431 -6.9138265 10.1315
-39.458931 4.8054671 -7.116293 10.137
-37.789593 5.0807509 -6.9786797 10.1155
-37.467232 4.8927369 -6.9326954 10.084
-45.795227 5.3329134 -6.8588867 10.0825
-41.049557 5.3149133 -7.119051 10.0835
-39.03516 5.3696442 -7.1261978 10.0965
-37.715431 5.3250179 -6.9934292 11.0345
-37.42448 5.3324513 -7.0062523 10.6328
-37.12405 5.2873363 -6.9763575 10
-38.006577 5.7709374 -7.0518923 11
-37.762169 5.7674551 -7.0400476 11.042188
-37.413696 5.8450937 -6.9763889 11
-37.006657 5.8017473 -7.0548844 11
-38.614082 6.0919957 -7.0513077 11.0725
-38.204834 6.3577886 -7.0300269 11.062
-37.364563 6.0128207 -7.1263485 11
-42.7113 6.6485023 -6.9417772 11.139
-38.068264 6.6243987 -7.0688252 11.062
-37.734234 6.6284962 -6.9102745 11.057751
-37.444664 6.7087264 -7.0871491 11.872666
-37.345131 7.0500236 -7.0082202 12.033125
-37.009041 7.0813675 -7.1740589 12
-38.01931 7.2018704 -7.070775 12
-37.615845 7.2494097 -7.0836105 12
-37.418953 7.357564 -6.9959049 12.010808
-37.072941 7.2425618 -7.1173725 12
-38.659039 7.862566 -6.9785557 12.085167
-36.848389 7.6196861 -7.0366936 12.084
-39.581017 8.2680321 -6.9417906 13.062
-38.504902 8.2089319 -6.9613476 12.563583
-38.293999 8.1180067 -7.0404005 12
-39.53886 8.5494699 -7.1793509 12.1
-38.571133 8.6817312 -7.0294366 13.064
-38.099861 8.7559271 -7.1716218 13
-37.789528 8.6454487 -6.9134579 13.055
-37.499676 8.6708746 -6.9361625 13
-37.007626 8.6356268 -7.0862265 13
-40.503551 8.9500885 -7.1528845 13.0615
-38.525433 9.0005503 -6.9569268 13.097333
-38.283379 8.8075457 -7.1489201 13.0725
-37.821091 8.9489479 -7.0357895 13.171167
-37.587841 9.0913935 -7.1579351 13
-37.056698 8.9217186 -6.9569092 14.044
-44.009457 9.4985809 -6.8418045 13.061
-39.818714 9.3725996 -6.8948679 13.0835
-38.037819 9.5939217 -6.943594 14.069
-37.874176 9.3759975 -6.9776092 13.6925
-37.591724 9.3857784 -6.9580641 13.0965
-40.155621 9.9443092 -7.1439734 13.115
-37.765274 9.7423811 -7.035233 14.06275
-37.495037 9.9692698 -6.9739394 14.04175
-39.397163 10.358318 -6.9452343 14.0625
-38.160343 10.298851 -7.0306907 14.028333
-37.752602 10.055264 -7.0034781 14
-37.420826 10.096556 -6.8792624 14.137751
-39.75626 10.631288 -7.0013494 14.073376
-39.527569 10.790036 -7.0666537 14.139
-38.620216 10.489519 -7.0221443 14.14
-38.138145 10.609555 -6.8536053 14.521999
-39.522598 10.805102 -6.956377 14.0835
-41.614742 11.552598 -7.1908989 15.0435
-41.084526 11.640187 -7.0513959 15.047
14.227169 -1.637176 -6.6098356 4
-2.1059353 -1.223552 -6.6224995 2.1666667
-1.7660093 -1.2402294 -6.6638284 1.4705882
-1.3568319 -1.2596987 -6.6517396 1.4583334
-0.95715696 -1.298892 -6.6039672 1.5348837
-0.58183235 -1.3848763 -6.6024208 1.6296296
-0.19602606 -1.3960061 -6.6135678 1.7692307
0.19717376 -1.4069852 -6.6022344 1.7222222
0.57524562 -1.4141558 -6.5979772 1.8333334
1.0167638 -1.4166391 -6.6183619 1.5333333
1.4411135 -1.418425 -6.6234565 1.7916666
1.8101711 -1.4228538 -6.6108441 1.6818181
2.2055311 -1.4325759 -6.6403489 1.6521739
2.6175284 -1.4375658 -6.5993152 1.84
3.0263269 -1.4468732 -6.5649619 1.65
3.3690515 -1.4461862 -6.5976715 2
3.8230488 -1.4988357 -6.6066918 2.6666667
4.1910391 -1.4697475 -6.6120033 3.5
4.5854435 -1.4993283 -6.6442528 4
4.9670711 -1.4802138 -6.5013947 3.6666667
6.0671501 -1.4061921 -6.4859729 1
6.5657692 -1.3328671 -6.5860043 1
6.9794006 -1.3427099 -6.5278568 1
7.3244734 -1.3320787 -6.6432638 1.5
7.8566265 -1.3353642 -6.5589895 2
8.1489868 -1.3432392 -6.670805 2
8.5811234 -1.3548574 -6.576849 2
9.5179186 -1.3481389 -6.5505409 3
9.7302942 -1.3554711 -6.6298156 3
10.038394 -1.364221 -6.587698 3
11.179879 -1.4773502 -6.4471436 4
11.435884 -1.3358016 -6.5061278 3.8888891
11.76181 -1.3987474 -6.6876745 4
14.247435 -1.3767569 -6.5673742 5
15.164316 -1.45207 -6.6122551 5
16.826092 -1.3076971 -6.6166954 5
18.224709 -1.4462333 -6.5719128 6
19.838636 -1.3508821 -6.5910702 6
20.204073 -1.3441439 -6.5846987 6
20.916729 -1.3634763 -6.6934862 6
21.427616 -1.4112909 -6.7064557 6
22.486954 -1.3544198 -6.5446978 6
23.104145 -1.4599679 -6.6688433 6
23.802814 -1.2170552 -6.4209318 7
24.603329 -1.244974 -6.4519138 6
47.064899 -1.5609155 -6.725481 7
-3.2709408 -0.9492656 -6.5774665 2.8571429
-3.0967183 -0.94648337 -6.6256852 3.0028372
-2.6125839 -1.0993586 -6.5927801 2.1199999
-2.2097201 -1.1344892 -6.5917373 1.748
1.8323224 -0.84234017 -6.7394686 3
3.2941425 -0.91258091 -6.5539184 0.98571426
11.205789 -1.0318644 -6.4264717 5
11.691353 -1.1068007 -6.4888039 5
12.171806 -0.89140576 -6.5641136 5
21.777901 -0.8075704 -6.7292986 6
22.445648 -1.0629562 -6.4678664 7
23.457224 -0.97069478 -6.6613297 7
23.64312 -0.92216754 -6.5889182 7
24.086432 -0.89497775 -6.483274 7
24.648151 -0.99922717 -6.7193804 7
25.083948 -0.87414885 -6.6084318 6.75
25.842371 -0.86726046 -6.6606302 7
26.880423 -0.87766832 -6.6269617 7
32.736507 -1.1141318 -6.7171116 7
32.990395 -1.1895763 -6.7680044 7
33.417526 -1.067975 -6.768909 7
33.814182 -1.1431534 -6.7991533 7
34.500839 -1.1255658 -6.4717655 7
35.306004 -1.0991092 -6.7202425 7
38.368324 -1.1802379 -6.6896048 7
-3.2574291 -0.60946035 -6.5471478 3.9833333
-3.1275432 -0.61000669 -6.6179309 4.4871731
3.3562486 -0.57724822 -6.5917201 2.7883928
25.039377 -0.77021718 -6.6864624 7
-3.2213438 -0.22025879 -6.5906687 5.2523804
-3.1210277 -0.19386835 -6.6145353 6.1320825
1.8607235 -0.1280724 -6.6416712 6
3.5248818 -0.19963208 -6.6403842 6.0021362
3.6382141 -0.15817107 -6.6034856 5.092773
-3.2317805 0.20463569 -6.58395 7.3613033
-3.1131139 0.1898644 -6.6261415 7.6470056
3.9471502 0.0077145547 -6.7792082 8.0342503
4.2863269 0.077116571 -6.7821884 8.1665001
-3.2156208 0.4593617 -6.5645928 8.5714293
-3.1095366 0.60560751 -6.6181598 9.1450863
-3.3278644 1.0705166 -6.611692 11.448332
-3.1011555 0.87944651 -6.6149111 10.310781
-3.3783269 1.3833547 -6.6047053 12.958952
-3.6148391 1.8174752 -6.7472444 11
-3.2912455 1.802314 -6.5954795 13.31134
-3.1145358 1.9084466 -6.5936093 13.572941
-3.3278089 2.1299524 -6.707839 12
-3.0761719 2.1674888 -6.6063032 13.792377
-3.2687023 2.5530281 -6.6753736 13
-3.0724654 2.5518935 -6.5997438 14.354179
-56.067055 3.1627305 -6.4762783 9.0465002
-15.82066 3.0514722 -6.7364402 12.075
-11.541618 3.0719848 -6.5962763 12.7029
-9.4493608 3.0863855 -6.5946283 13.481108
-7.3353982 2.9078975 -6.6487656 14.531349
-3.3900962 3.1736913 -6.6472969 14
-3.0703397 2.940917 -6.6052818 14.381762
-53.271114 3.3398657 -6.7911263 9.0620003
-45.535408 3.4113941 -6.4820328 9.0614996
-39.275986 3.4842741 -6.7115498 10.0525
-38.962097 3.2938652 -6.614326 9.0943336
-38.709248 3.4275355 -6.5813885 9.052125
-36.875378 3.5824437 -6.4951677 9.1160002
-9.4574738 3.2696662 -6.4592104 12.6225
-3.060154 3.3831916 -6.6147184 14.646228
-52.568386 3.862365 -6.4140401 9.1370001
-46.118767 3.8610101 -6.7184825 9.0750008
-45.495075 3.9844766 -6.7583828 9.5675001
-39.532383 3.8260875 -6.6571264 9.1155005
-38.993992 3.9752924 -6.7276516 10.0635
-36.852676 3.7932227 -6.7209239 10.064
-3.3864608 3.6427774 -6.6268172 15
-3.0138595 3.7610316 -6.6062851 15
-52.737019 4.3726482 -6.7029305 9.0839996
-45.521484 4.165513 -6.4737825 9.0834999
-40.892464 4.1167831 -6.7543192 9.0965004
-39.025711 4.1242628 -6.7131691 9.1005001
-38.051022 4.1086488 -6.6601658 10
-37.839252 4.1564345 -6.6359076 9.666667
-37.535179 4.2933416 -6.5078597 10.0408
-38.047394 4.5914674 -6.5264506 10.0385
-37.768642 4.550137 -6.5789475 10.027183
-37.128448 4.5025558 -6.4020658 10
-37.725864 5.1507978 -6.548234 11.0625
-37.291214 4.8773446 -6.5114784 10
-36.989319 5.0671511 -6.5192776 10.097
-37.922623 5.4007626 -6.5995855 11.03275
-37.279812 5.36625 -6.4905834 10.104
-39.927132 5.7144957 -6.6311312 10.1035
-37.808475 5.788857 -6.5411792 11.015278
-37.379635 5.7818007 -6.6473255 11.02525
-37.180771 5.6174455 -6.6522865 11
-38.126308 6.3908558 -6.7192736 11.0905
-37.864552 6.2814155 -6.5145774 11.0855
-37.402729 6.1056132 -6.5835528 11
-37.118549 6.0160127 -6.5879869 11
-38.85442 6.5253773 -6.7055326 11.084
-38.304485 6.4127927 -6.6992636 11
-37.778587 6.6167593 -6.6670952 11.097
-37.399784 6.6718178 -6.648241 11.765625
-37.78278 7.1223707 -6.5573664 12.013201
-37.477402 7.0531144 -6.6858721 11.8208
-38.462513 7.4238615 -6.4565868 12.1405
-38.141792 7.4178128 -6.6087093 12.0365
-37.705296 7.3488903 -6.6170425 12
-37.425674 7.2655177 -6.7007427 12
-38.529629 7.8843479 -6.6412811 12.0905
-38.332981 7.7502627 -6.504468 12.132
-39.485897 8.2765598 -6.5709085 12.1155
-38.864185 8.3355484 -6.7921371 13.0635
-38.356548 8.1722746 -6.5396013 12.5815
-39.389374 8.6007662 -6.7150431 12.1035
-37.701675 8.6064062 -6.647387 13.01925
-37.443893 8.5812302 -6.5973434 13.017792
-37.118484 8.686697 -6.5589952 13.03975
-38.900219 8.9109983 -6.7876382 13.139
-37.806232 9.037056 -6.7374592 13.022625
-37.383892 8.8442879 -6.6013651 13.042
-37.105888 9.151823 -6.6191015 14.0625
-37.493462 9.4834595 -6.6803074 13.09875
-36.902107 9.2434025 -6.5942659 14.0655
-39.783867 9.9284821 -6.788518 13.093
-37.692551 9.9409742 -6.5759835 14.01925
-37.428818 9.9719467 -6.6570148 14
-39.634075 10.170188 -6.6524801 13.1035
-38.130753 10.352484 -6.5187473 14.10625
-37.738716 10.086565 -6.5172834 14
-37.513882 10.087796 -6.6438842 14
-38.164558 10.458721 -6.4788442 14.0785
-40.648296 11.004335 -6.4421206 14.079
-39.515793 10.872227 -6.7216306 14.5965
-41.309486 11.86664 -6.6488371 15.065
-40.992912 11.923379 -6.5199642 15.06525
-41.338642 12.423495 -6.662962 15.0765
13.871729 -1.6287667 -6.1894255 4
14.055925 -1.635407 -6.3730192 4
47.505737 -1.8139396 -6.1200953 7
-2.4168649 -1.2251998 -6.2111344 4
-2.1292646 -1.2320181 -6.2107787 2.9166667
-1.8149742 -1.2477285 -6.1831665 1.7777778
-1.4069558 -1.2594745 -6.2177372 1
-0.94273198 -1.3033152 -6.1980071 1.6666666
-0.6437161 -1.3942474 -6.1449704 1.7368422
-0.19655998 -1.4089137 -6.2063417 1.2777778
0.19488369 -1.4188896 -6.2432008 1.125
0.5856756 -1.4140179 -6.2021337 1.3
1.0104492 -1.4189719 -6.215343 1.4705882
1.4182286 -1.4143116 -6.1774292 1.7368422
1.8441334 -1.4255809 -6.1763854 1.5
2.2422936 -1.4335828 -6.1997695 1.7361112
2.6346149 -1.4400387 -6.2213349 1.3333334
3.0054677 -1.4185827 -6.1926513 2
3.4022937 -1.3778049 -6.1627922 2.2857144
3.828968 -1.4595038 -6.1193132 2.2
4.1983948 -1.4612927 -6.1925664 2.5555556
4.6134176 -1.4982578 -6.1669903 2.5
4.9090519 -1.4767058 -6.1100702 2.5999999
5.5684605 -1.4666097 -6.1955781 3
5.7778397 -1.4706417 -6.0573554 3
6.284718 -1.364521 -6.2671342 1.3333334
6.4823513 -1.3325438 -6.2237587 1
6.9013176 -1.3427575 -6.1549716 1
7.2806683 -1.3490393 -6.2259941 1
7.6675591 -1.3584749 -6.157402 1
8.15135 -1.3496536 -6.2352405 2
8.6143599 -1.3618033 -6.1640582 2
9.7522917 -1.4039724 -6.2188978 2.5999999
10.192037 -1.3907573 -6.1865091 3.4000001
11.004992 -1.2943772 -6.1627226 4.0303035
11.401345 -1.2935507 -6.3666496 4.25
12.109676 -1.220585 -6.334394 5
12.478342 -1.4749917 -6.1719007 4
13.035329 -1.2564313 -6.3147573 5
14.123098 -1.3798444 -6.2728825 5
15.047421 -1.4746488 -6.2400041 5
16.807697 -1.3039032 -6.1984949 5
18.231653 -1.445146 -6.105463 6
19.43227 -1.3876925 -6.0333242 6
19.712645 -1.3822052 -6.2357635 6
20.20293 -1.3134673 -6.077435 6
20.732174 -1.3838301 -6.1561298 6
21.032713 -1.3736917 -6.2734571 6
21.583689 -1.2974492 -6.2574797 6
21.883625 -1.4102023 -6.1940823 6
22.375893 -1.4042772 -6.356554 6
23.355724 -1.3095181 -6.0124903 7
23.738758 -1.3340399 -6.3060784 7
33.049553 -1.2149394 -6.2080183 7
38.824394 -1.2264291 -6.1309252 7
42.40937 -1.3727885 -6.369504 7
-3.2509246 -0.90453953 -6.1458406 3.5
-3.0960789 -0.95264721 -6.2191548 2.8089607
-2.6137288 -1.0981175 -6.2211914 2.4074075
-2.169481 -1.1543089 -6.1762838 1.9230769
1.0002784 -1.0912971 -6.054759 4.5
2.3547335 -0.84743863 -6.0833263 3.5999999
3.3359718 -0.97728276 -6.1914749 2.2712121
11.06087 -1.0288942 -6.2107821 4.8125
11.380918 -0.9515487 -6.192462 5
11.757326 -1.0174441 -6.2677107 4.75
12.211296 -0.89435631 -6.2847238 5
14.923384 -0.88603306 -6.2217169 6
15.365089 -1.0775433 -6.1279545 5.5
16.965321 -1.0350407 -6.3132086 6
17.332489 -1.0235953 -6.006711 6
18.536144 -1.149804 -6.3642449 6
19.502502 -1.1988596 -6.0114403 6
20.143175 -0.93007857 -6.2255926 6
21.671656 -0.91648436 -6.2810688 6
22.214937 -1.0468284 -6.1222062 7
23.134415 -0.93963927 -6.0879865 7
23.540775 -0.93369973 -6.2304096 7
23.652149 -0.8911618 -6.0917692 7
24.528902 -0.89829284 -6.2096233 7
24.961323 -0.86019343 -6.1952667 6.8000002
25.306873 -0.84179121 -6.1082335 7
25.656052 -0.85208231 -6.2923841 7
26.150818 -0.80091244 -6.1285038 7
32.950935 -1.1458925 -6.2106609 7
34.270672 -1.1312888 -6.2741623 7
34.43364 -1.1893589 -6.3837881 7
35.364315 -1.089416 -6.1107988 7
-3.2495947 -0.59386951 -6.22154 4.4333334
-3.1271663 -0.61744517 -6.2082734 4.501987
0.99619728 -0.60438693 -6.1228991 6
2.3472381 -0.5093016 -6.1518116 5
2.7257648 -0.75544596 -6.2416191 4
3.3618205 -0.58727223 -6.2016816 3.8344462
3.8828855 -0.48667783 -6.1836185 2
4.2529755 -0.47881019 -6.2502055 4
4.6762228 -0.47949442 -6.1842365 4.8611112
4.8720322 -0.68370932 -6.2888079 3
-3.2259965 -0.18554436 -6.2017493 5.75
-3.1138437 -0.1929725 -6.2131171 6.1198974
0.98770249 -0.27353373 -6.0197153 7
2.4141238 -0.14647998 -6.1670446 6.5714288
3.5204966 -0.22439867 -6.2040968 5.2693381
3.716717 -0.16645184 -6.1789966 5.1596317
4.2763314 -0.14555347 -6.1702323 6.3333335
4.619401 -0.19734246 -6.182065 6.5500002
-3.257021 0.15182906 -6.2068572 7.208333
-3.1073637 0.20957723 -6.215651 7.7286968
2.3993964 0.1843704 -6.030736 8
-3.2364902 0.56037015 -6.1928968 8.8125
-3.1049378 0.60552013 -6.2166691 9.1427078
-3.3171985 1.0785376 -6.213387 11.217223
-3.1052167 0.89078909 -6.2243938 10.352218
-3.3616929 1.3840842 -6.1736598 12.552652
-37.165047 1.8118144 -6.191597 8.0526667
-3.3027933 1.7832261 -6.1970577 13.223148
-3.0936887 1.9295839 -6.2136507 13.396064
-3.2969458 2.1311584 -6.2529879 12.1555
-3.0782332 2.1822119 -6.2272587 13.920065
-54.509781 2.7758257 -6.1955404 8.0825005
-54.322109 2.7874346 -6.081109 9.0434999
-3.2932014 2.568573 -6.230216 13.1555
-3.0756898 2.5795875 -6.217814 14.458911
-37.200489 3.1680791 -6.3468485 9
-37.135963 3.0290291 -6.0844793 9.0734997
-13.648249 3.1922915 -6.3353767 12.125
-11.536781 3.0488143 -6.2493091 12.682
-9.4452934 3.0759878 -6.2136502 13.820816
-7.3260722 2.8836434 -6.2100911 15.136856
-3.363627 3.0502024 -6.151135 14.1515
-3.0730181 2.9684489 -6.2152529 14.573412
-45.431114 3.3491433 -6.3144226 9.1374998
-9.4717026 3.2343245 -6.1590691 13.119375
-3.3564448 3.4707193 -6.020165 15.1515
-3.0618808 3.3309095 -6.2585454 14.633714
-53.291786 3.6225758 -6.2255926 8.0994997
-45.989647 3.8428876 -6.1975355 9.0784998
-45.520599 3.8236959 -6.1183195 9.1072502
-44.917782 3.9420936 -6.0632133 9.0834999
-39.327087 3.974925 -6.3323641 9.0970001
-38.510284 3.7779591 -6.2049885 9.0469999
-36.880756 3.6670849 -6.0038342 9.0904999
-36.724846 3.73511 -6.2234631 9.0974998
-3.0148926 3.6596344 -6.185338 15
-45.551434 4.0572519 -6.0013494 9.1239996
-43.401382 4.2882752 -6.1519108 9.0965004
-40.327614 4.2853923 -6.0016994 10.0695
-38.839096 4.1337528 -6.1544161 9.1040001
-37.485184 4.3506117 -6.2091722 10
-38.187267 4.4942312 -6.1641788 10.096
-37.781788 4.667933 -6.1511087 10.0303
-37.710312 4.9318643 -6.1735358 10.0845
-37.542 5.1220531 -6.1684632 10.10675
-40.512615 5.2853155 -6.3498888 10.0905
-38.291557 5.2194419 -6.356338 10
-37.786777 5.3900275 -6.2114439 10.101
-37.780739 5.7384539 -6.281652 11.0505
-37.370384 5.8586278 -6.2370019 11.060857
-37.19915 5.9893584 -6.2262678 11.067
-37.449295 6.0792351 -6.0977201 11.0845
-37.072468 6.0769787 -6.3613338 11
-36.745087 6.2089562 -6.352407 11.0845
-38.830231 6.5121365 -6.0805173 11
-38.79179 6.7408676 -6.2672639 11
-37.369518 6.4747477 -6.3197522 11.106501
-37.161392 6.5305934 -6.1055174 11.0975
-39.049511 6.9773393 -6.0810528 12.0695
-38.087955 7.187561 -6.1854887 12
-31.952871 7.0116959 -6.3388014 13.065
-40.219418 7.5869932 -6.0890322 12.077
-38.558857 7.4820843 -6.1701989 12.042749
-38.221138 7.3201137 -6.2547622 12
-37.366142 7.2829776 -6.1809058 12
-32.976292 7.2238998 -6.3592343 12.1015
-38.861244 7.7836876 -6.121078 12.03975
-38.254578 7.8655682 -6.2676144 12.0415
-35.040649 7.8568611 -6.1516113 13.063
-39.270241 8.3376684 -6.3291216 12.097
-39.16938 8.3520594 -6.2444382 13.0655
-38.111061 8.0775814 -6.2092028 12.0485
-39.497757 8.5061626 -6.0038509 13.0695
-39.066994 8.4070396 -6.0174599 13.064
-38.511623 8.5098934 -6.117497 12.58325
-37.858521 8.5732946 -6.2476454 13.06425
-37.354023 8.6139832 -6.2346134 13.024889
-36.965599 8.7909489 -6.2867432 13.067
-38.589203 8.9670143 -6.2621751 13.0855
-38.247265 8.8503733 -6.0887079 13
-36.945408 8.9841661 -6.252543 13.379167
-36.339142 9.1554432 -6.1493673 13.0975
-38.508053 9.3776312 -6.1600308 13
-37.856789 9.4288502 -6.2637029 13.32275
-37.387558 9.3175974 -6.2568092 13.116
-37.827843 9.7578363 -6.2524223 14.06225
-37.514389 9.9845047 -6.2124519 14.084
-38.160858 10.385379 -6.2540951 14.0795
-37.879162 10.277675 -6.2853909 14.093833
-37.492325 10.063998 -6.2196093 14.05025
-38.030308 10.587296 -6.2493496 15.053
-37.804585 10.64359 -6.1081171 14.091
-40.965412 11.532419 -6.254231 14.08725
-40.894424 11.684719 -6.3585358 14.572001
-40.621044 11.793491 -6.1210504 14.583
-41.435913 12.321778 -6.3006907 15.062
-41.252335 12.535255 -6.1068544 15.07475
13.765345 -1.63264 -5.9888926 4
